ply
format ascii 1.0
comment Created by CloudCompare v2.10.2 (Zephyrus)
comment Created 2020/3/31/ÐÇÆÚ¶þ 15:50
obj_info Generated by CloudCompare!
element vertex 657
property float x
property float y
property float z
property uchar red
property uchar green
property uchar blue
property float nx
property float ny
property float nz
property float scalar_Scalar_field
end_header
-2.47076 -2.0442 1.16802 245 245 245 0.998304 0.0495462 -0.0305711 1873 
-3.95598 -11.462 3.92633 230 230 230 0.129695 0.219583 0.966935 1633 
-2.62071 0.974336 0.817649 236 236 236 0.998854 0.0464824 -0.0113624 1729 
-3.00597 -11.8956 3.88844 220 220 220 0.137024 0.203616 0.969415 1473 
-2.29461 -4.45312 1.01792 249 249 249 0.961097 0.101915 0.256722 1937 
-5.08343 0.59145 -0.057635 221 221 221 0.773001 0.634221 -0.0152657 1489 
-1.02144 -10.5153 2.72616 255 255 255 0.940534 0.318893 0.117062 2033 
-1.99503 -4.96948 0.74067 221 221 221 0.430282 0.189442 0.882592 1489 
-2.23999 -5.55135 1.63249 252 252 252 0.994189 0.0883475 -0.0615077 1985 
-0.748963 -10.4167 7.58914 253 253 253 0.973058 0.229866 0.0178652 2001 
-2.17275 -5.53003 1.09666 252 252 252 0.94072 0.145669 0.306312 1985 
-1.89213 -6.66412 1.14156 226 226 226 0.594965 0.299888 0.745711 1569 
-0.787158 -7.71886 4.26416 254 254 254 0.999198 0.0174937 -0.0360164 2017 
-3.14967 -11.9129 3.91201 218 218 218 0.134176 0.203181 0.969904 1441 
-1.0576 -8.17299 1.44654 199 199 199 0.151969 0.349947 0.924361 1137 
-1.13203 -8.81247 3.23914 224 224 224 0.580154 -0.167265 -0.797147 1537 
-0.869285 -10.9852 2.80459 248 248 248 0.964248 0.176626 -0.19756 1921 
-1.80656 -7.91091 2.02574 253 253 253 0.966 0.251185 0.0612342 2001 
-0.922268 -8.73047 3.67368 255 255 255 0.999486 0.0193976 -0.0255231 2033 
-5.82883 0.767749 1.9989 145 145 145 0.0520295 0.209328 0.97646 273 
-7.50275 0.084058 2.10747 173 173 173 -0.0157194 0.257556 0.966136 721 
-1.0788 -10.4789 3.3259 228 228 228 0.685816 0.268916 0.676269 1601 
-2.34592 -3.05857 0.773854 246 246 246 0.947171 0.0768681 0.311381 1889 
-4.76791 -11.0117 4.00429 219 219 219 0.219753 -0.0626113 0.973544 1457 
-2.3373 -0.400969 1.78807 245 245 245 0.984327 0.0997548 -0.145426 1873 
-2.44176 -0.858627 1.50304 236 236 236 0.938428 0.00125626 -0.345472 1729 
-1.91024 -7.47682 1.96711 255 255 255 0.974705 0.223492 0.00117011 2033 
-1.68671 -8.3286 2.04005 255 255 255 0.937079 0.306856 0.1665 2033 
-1.0026 -10.8282 3.38039 229 229 229 0.615769 0.30065 0.728312 1617 
-1.35372 -5.62922 -0.26676 239 239 239 0.988406 0.116352 -0.0975478 1777 
-2.064 -6.66568 1.55386 255 255 255 0.966344 0.213449 0.143593 2033 
-2.06535 -6.7201 1.68025 249 249 249 0.977964 0.199461 0.0616516 1937 
-0.994442 -10.6564 3.11142 255 255 255 0.95913 0.27203 -0.0779054 2033 
-2.40085 -0.591221 0.334015 238 238 238 0.827245 0.0996159 0.55294 1761 
-4.87795 -11.3534 4.0396 232 232 232 0.195551 0.1249 0.972708 1665 
-1.66861 -6.37698 2.71267 223 223 223 0.669912 -0.0125347 -0.742335 1521 
-2.06864 -6.35684 1.27305 255 255 255 0.929913 0.215898 0.297741 2033 
-2.18181 -5.90183 1.8142 254 254 254 0.982118 0.108045 -0.154177 2017 
-4.19516 -11.2881 3.92514 228 228 228 0.14471 0.16736 0.975218 1601 
-2.18578 -5.87475 1.81211 253 253 253 0.982002 0.105605 -0.156586 2001 
-1.86763 -1.71649 2.28051 194 194 194 0.582579 -0.0521923 -0.811097 1057 
-1.47196 -8.97249 2.71804 255 255 255 0.933571 0.153067 -0.324061 2033 
-2.05934 -5.98948 2.19627 247 247 247 0.908747 0.0578906 -0.413312 1905 
-2.38421 -2.57829 1.58959 228 228 228 0.919979 0.385451 -0.0711808 1601 
-2.98089 -11.633 3.83039 221 221 221 0.140438 0.183455 0.972945 1489 
-2.57518 2.84577 -0.0390448 223 223 223 0.817298 0.0940254 0.568492 1521 
-0.943634 -10.8479 2.96507 254 254 254 0.941119 0.326943 0.0860376 2017 
-2.49703 2.75759 -0.0992537 196 196 196 0.683749 0.104851 0.722145 1089 
-1.16339 -9.98342 3.13055 255 255 255 0.976724 0.213769 -0.0177157 2033 
-2.31909 -4.49672 1.62357 249 249 249 0.984356 0.0676819 -0.162674 1937 
-0.838601 -7.07781 3.45727 253 253 253 0.998439 0.0220013 -0.0513363 2001 
-7.69912 0.372028 2.04835 169 169 169 -0.0128104 0.201472 0.97941 657 
-5.8189 3.3839 1.80527 211 211 211 0.988358 0.0590929 -0.140201 1329 
-4.25691 -0.222113 2.19024 150 150 150 -0.363366 0.209912 -0.90769 353 
-2.0011 -2.37788 0.321936 208 208 208 0.432282 0.116871 0.894133 1281 
-0.839638 -9.5226 6.2546 251 251 251 0.999186 0.034028 -0.0216542 1969 
-1.26411 -9.60394 2.98439 255 255 255 0.950727 0.165402 -0.262223 2033 
-5.74397 2.59375 1.87317 213 213 213 0.997701 0.0677644 0.00104253 1361 
-1.33441 -9.58956 2.57456 255 255 255 0.951341 0.305291 0.0418033 2033 
-0.849856 -9.59357 4.99316 255 255 255 0.995232 0.0974877 -0.00321388 2033 
-5.73738 3.37637 0.692825 193 193 193 0.927347 0.0733872 0.366936 1041 
-0.831433 -9.75609 4.6783 255 255 255 0.993508 0.11376 -0.00108343 2033 
-2.38976 1.75476 -0.0246437 204 204 204 0.565406 0.115419 0.816697 1217 
-3.9721 -0.578011 2.25255 164 164 164 0.0228817 -0.099154 -0.994809 577 
-0.831951 -7.35184 3.50064 255 255 255 0.998322 0.022045 -0.0535378 2033 
-2.62459 3.83541 0.763745 190 190 190 -0.365926 0.930643 -0.00126618 993 
-2.16741 -6.01974 1.82325 255 255 255 0.982752 0.112695 -0.146625 2033 
-0.862358 -9.48925 4.02572 255 255 255 0.994675 0.1026 -0.00971995 2033 
-0.909137 -4.69085 3.01375 250 250 250 0.993261 -0.00108316 -0.115898 1953 
-1.40856 -6.43153 0.932586 191 191 191 0.186946 0.266091 0.945646 1009 
-5.5839 0.624555 1.528 43 43 43 0.992248 0.109998 0.0578339 -1359 
-0.695263 -10.7951 7.66149 253 253 253 0.988071 0.152794 0.0192408 2001 
-1.04184 -11.0605 2.50299 245 245 245 0.866335 0.00401701 -0.499448 1873 
-1.5979 -11.4182 3.59328 215 215 215 0.140157 0.180563 0.973526 1393 
-0.97281 -10.685 3.19897 255 255 255 0.959044 0.280605 0.0386611 2033 
-0.612555 -11.1306 7.28462 255 255 255 0.972751 0.231607 0.0106896 2033 
-1.41902 -4.20958 2.71839 200 200 200 0.402617 -0.0745587 -0.912327 1153 
1.17307 0.619928 -0.577789 225 225 225 0.86392 0.475377 -0.166308 1553 
-2.00842 -5.90915 2.30304 244 244 244 0.865709 0.036926 -0.499184 1857 
-2.38955 -3.64327 1.29877 252 252 252 0.998711 0.0505024 -0.00515331 1985 
-2.05932 -3.82497 0.554926 221 221 221 0.484727 0.141197 0.863193 1489 
-1.24097 -6.94357 3.01098 220 220 220 0.409704 -0.0635514 -0.910002 1473 
-0.804101 -9.51954 7.21445 238 238 238 0.991821 -0.108427 -0.0673388 1761 
-1.99564 -4.38722 0.623779 217 217 217 0.421311 0.172289 0.890401 1425 
-0.963312 -10.9283 2.64297 248 248 248 0.88892 0.0281558 -0.457197 1921 
-0.888588 -8.18461 3.70405 250 250 250 0.977116 -0.189 -0.0975881 1953 
-2.01898 -6.75617 1.43756 255 255 255 0.937895 0.241093 0.249455 2033 
-1.64952 -8.52391 2.29711 255 255 255 0.964588 0.26329 -0.0157731 2033 
-1.48454 -9.08932 2.52299 255 255 255 0.961124 0.26719 -0.0696466 2033 
-2.17575 -5.65095 1.94698 252 252 252 0.958705 0.0674786 -0.27628 1985 
-2.09259 -10.7655 3.52685 218 218 218 0.142123 0.172308 0.974736 1441 
-2.11444 -6.3791 1.88361 255 255 255 0.981734 0.130816 -0.138152 2033 
-1.40696 -9.32941 2.63976 255 255 255 0.958931 0.258924 -0.1158 2033 
-0.819416 -9.84326 5.8342 255 255 255 0.994485 0.104739 -0.00539894 2033 
-0.834901 -9.61513 6.25316 252 252 252 0.998223 0.0574893 -0.0156789 1985 
-4.49351 -11.3257 3.97672 227 227 227 0.145976 0.155957 0.976918 1585 
-0.791713 -11.6901 2.90938 244 244 244 0.842743 0.0288705 -0.537541 1857 
-1.51815 -7.63988 2.85928 231 231 231 0.707051 0.0125512 -0.707051 1649 
-1.06315 -10.4129 3.08386 255 255 255 0.960458 0.25913 -0.101847 2033 
-1.24967 -7.982 3.07083 219 219 219 0.530352 -0.0316834 -0.847185 1457 
-2.36636 -3.98288 1.20643 253 253 253 0.994288 0.0659876 0.0838826 2001 
-0.652599 -10.9756 7.71096 253 253 253 0.973694 0.227785 0.00590117 2001 
-0.59449 0.68709 -0.263961 233 233 233 0.934587 0.0784362 0.34698 1681 
-6.49131 0.153517 2.10862 168 168 168 -0.0255387 0.254171 0.966822 641 
-2.8721 7.24793 -0.271412 205 205 205 0.961604 0.0384642 0.271731 1233 
-1.45472 -9.02649 2.73738 255 255 255 0.937358 0.146419 -0.316102 2033 
-1.98687 -7.12188 1.79289 252 252 252 0.974084 0.218772 0.0574428 1985 
-1.58974 -7.00135 2.79337 226 226 226 0.680398 -0.00138012 -0.732842 1569 
-3.99944 -11.406 3.92017 226 226 226 0.134176 0.203181 0.969904 1569 
-1.71638 0.714184 -0.257169 238 238 238 0.961407 0.0723913 0.265435 1761 
-0.862725 -9.46857 4.73848 255 255 255 0.996069 0.0884211 -0.00532657 2033 
-1.50379 -7.87215 1.44649 228 228 228 0.352897 0.365225 0.861438 1601 
-0.162408 -11.5188 2.66365 252 252 252 0.778202 0.129452 0.614527 1985 
-0.850964 -7.58701 3.1854 246 246 246 0.975828 0.00116866 -0.218539 1889 
-1.95582 -6.47074 2.34063 247 247 247 0.885152 0.0619469 -0.46116 1905 
-0.822318 -9.76463 6.47632 253 253 253 0.997391 0.0708645 -0.0137498 2001 
-5.54989 2.70822 0.461623 168 168 168 0.736478 0.186041 0.650376 641 
-0.567977 -11.3136 6.73547 252 252 252 0.981019 0.193909 -0.00114739 1985 
-0.887857 -9.19089 4.34676 255 255 255 0.997618 0.06833 -0.00946108 2033 
-0.845897 -9.63552 4.48842 255 255 255 0.993746 0.11162 0.00325108 2033 
-2.3524 -2.25411 0.593363 244 244 244 0.911935 0.0888692 0.400595 1857 
-1.55885 -8.78409 2.18469 255 255 255 0.927932 0.326106 0.180548 2033 
-0.678262 -10.8283 6.87122 252 252 252 0.976518 0.215046 0.0129262 1985 
-0.892777 -8.66962 4.44545 251 251 251 0.996048 -0.069033 -0.0558839 1969 
-6.30525 5.34317 1.18856 240 240 240 -0.0416971 0.997522 0.0566652 1793 
-0.787731 -7.80114 4.12514 252 252 252 0.999091 0.00717296 -0.0420131 1985 
-0.617002 -11.125 7.75365 250 250 250 0.973694 0.227785 0.00590117 1953 
-0.802857 -9.92716 7.10716 252 252 252 0.997391 0.0708645 -0.0137498 1985 
-1.37873 -6.43039 0.926916 190 190 190 0.178104 0.265117 0.947624 993 
-1.71666 -7.53568 2.61761 244 244 244 0.850756 0.0719545 -0.520612 1857 
-1.20943 -9.72578 3.1159 253 253 253 0.98484 0.123857 -0.121452 2001 
-0.706697 -10.1224 1.31768 238 238 238 0.989006 0.140959 -0.0446944 1761 
-0.893648 -8.55377 4.27693 251 251 251 0.993072 -0.0982904 -0.0643972 1969 
-2.0765 -6.42473 1.35326 255 255 255 0.944777 0.213159 0.248915 2033 
-2.3742 -2.27026 0.656225 247 247 247 0.939068 0.080567 0.334155 1905 
-1.46161 -9.05893 2.69684 255 255 255 0.945907 0.181538 -0.268894 2033 
-9.21234 0.950516 1.93718 125 125 125 0.00323866 0.106876 0.994267 -47 
-2.32375 -1.54826 1.76061 233 233 233 0.880452 -0.00663991 -0.474089 1681 
-9.39918 0.647029 1.97683 164 164 164 -0.00788031 0.158732 0.98729 577 
-0.811358 -9.18688 6.52623 234 234 234 0.980361 -0.176149 -0.0886819 1697 
-0.783682 -10.1329 5.67846 255 255 255 0.991741 0.128214 -0.00328754 2033 
-2.87325 -10.3868 3.61732 212 212 212 0.21874 -0.0598786 0.973944 1345 
-12.6529 -0.185861 1.99698 150 150 150 -0.0561144 0.124826 0.990591 353 
-5.11762 -11.3714 4.13061 255 255 255 0.450625 0.111597 0.885711 2033 
-5.23741 1.45944 0.667383 42 42 42 0.581502 0.0971587 0.807722 -1375 
-1.19013 -9.06825 1.86838 228 228 228 0.298666 0.408943 0.862302 1601 
-1.14766 -8.27976 3.14064 221 221 221 0.471188 -0.036663 -0.881271 1489 
-1.44557 -8.58048 2.88271 247 247 247 0.820769 0.0787824 -0.565801 1905 
-2.24423 -1.91703 1.89934 228 228 228 0.842893 -0.0149787 -0.537872 1601 
-0.887386 -5.4313 3.25978 251 251 251 0.997472 0.017982 -0.0687547 1969 
-1.31427 -5.63247 0.147737 215 215 215 0.76225 0.552752 -0.336808 1393 
-1.81998 2.13962 -0.295458 186 186 186 0.807456 0.10951 0.579674 929 
-0.842446 -9.56126 6.01076 251 251 251 0.998261 0.0573713 -0.0135605 1969 
-5.5125 -0.0563157 1.64762 58 58 58 0.988197 0.146442 0.0449704 -1119 
-2.14918 -6.23698 1.59092 255 255 255 0.985274 0.164797 0.0455821 2033 
-1.86699 -5.61042 2.49896 231 231 231 0.748805 -0.0125032 -0.662672 1649 
-0.911541 -10.9918 2.73133 247 247 247 0.926927 0.0818272 -0.36621 1905 
-4.70231 -11.1636 3.98901 228 228 228 0.183998 0.0486706 0.981721 1601 
-2.05989 -1.86436 2.12783 218 218 218 0.715034 -0.0382296 -0.698043 1441 
-2.41748 -2.54289 1.46345 239 239 239 0.881952 0.419483 -0.214929 1777 
-4.10355 -10.8014 3.86704 217 217 217 0.219229 -0.062462 0.973672 1425 
-2.38904 -11.1091 3.63625 221 221 221 0.131597 0.2057 0.969727 1489 
-1.97019 -3.80101 2.3277 224 224 224 0.727608 -0.0324951 -0.685223 1537 
-0.882845 -5.96271 3.12919 252 252 252 0.995772 0.020498 -0.089544 1985 
-0.833324 -9.2807 6.37458 237 237 237 0.995151 -0.0806282 -0.0563293 1745 
-2.24738 -3.64754 1.91955 245 245 245 0.909655 0.00129396 -0.415362 1873 
-0.771005 -9.48725 7.51535 227 227 227 0.977227 -0.188545 -0.097353 1585 
-0.908938 -9.04669 3.44201 255 255 255 0.992612 0.0483378 -0.111289 2033 
-2.02084 -6.95692 1.75205 255 255 255 0.976335 0.209301 0.0544424 2033 
-1.38859 -9.40646 2.48962 252 252 252 0.947358 0.311442 0.074277 1985 
-6.25983 0.719654 1.99667 165 165 165 -0.0175878 0.202846 0.979053 593 
-3.39198 1.22013 -1.07143 205 205 205 0.887294 0.380269 0.260969 1233 
-1.05425 -10.4553 2.75633 255 255 255 0.92703 0.340513 0.157053 2033 
-2.59431 0.62265 0.661835 237 237 237 0.991232 0.0604549 0.117488 1745 
-1.53894 -5.13278 0.629841 187 187 187 0.215723 0.22115 0.951082 945 
-2.51527 2.79339 -0.0934587 199 199 199 0.711181 0.0953129 0.696518 1137 
-3.91271 -11.0783 3.84961 227 227 227 0.152248 0.134919 0.97909 1585 
-0.788939 -9.56028 7.50559 230 230 230 0.988 -0.134462 -0.076 1633 
-1.63671 -8.14791 2.64852 117 117 117 0.892762 0.11424 -0.435803 -175 
-2.32587 -4.28304 1.08236 250 250 250 0.976842 0.08724 0.195368 1953 
-1.93324 -5.50925 2.41912 238 238 238 0.784735 -0.00412295 -0.619817 1761 
-2.32659 -4.46863 1.17354 245 245 245 0.984634 0.0971442 0.145117 1873 
-1.39475 -5.42862 2.82971 210 210 210 0.426932 -0.069564 -0.901604 1313 
-1.47077 -8.98794 2.14427 255 255 255 0.885873 0.359463 0.293285 2033 
-1.44385 -8.28847 1.60312 240 240 240 0.436835 0.395231 0.808064 1793 
-1.78732 -7.7185 1.64904 255 255 255 0.895676 0.314455 0.314455 2033 
2.93225 0.764217 -0.804616 144 144 144 -0.809731 -0.574601 -0.119035 257 
-9.39324 -0.405175 2.18988 201 201 201 -0.0245323 0.0693305 0.997292 1169 
-0.830189 -9.75529 5.57409 255 255 255 0.994956 0.100033 -0.00752939 2033 
-2.81176 -11.6151 3.80223 219 219 219 0.135613 0.191379 0.972103 1457 
-3.33379 -10.8867 3.73273 225 225 225 0.151294 0.126693 0.980336 1553 
-4.93799 -11.7751 4.12955 230 230 230 0.213149 0.202425 0.95582 1633 
-11.1622 0.173568 2.01144 170 170 170 -0.0531819 0.243647 0.968405 673 
-0.800032 -9.66227 7.50169 234 234 234 0.993156 -0.108365 -0.0435693 1697 
-13.0757 -0.285095 1.9905 146 146 146 -0.046261 0.0570193 0.997301 289 
-5.47347 0.29572 1.02087 44 44 44 0.838241 0.177809 0.515496 -1343 
-0.781356 -9.38844 7.22526 228 228 228 0.977569 -0.188136 -0.0946827 1601 
-3.56031 -10.5692 3.76033 219 219 219 0.232113 -0.0976652 0.967773 1457 
-0.803699 -9.97861 6.01458 252 252 252 0.992948 0.118545 -0.00108757 1985 
-0.732437 -10.1153 2.2426 219 219 219 0.282519 0.449252 0.847558 1457 
-2.30407 4.88947 -0.489218 162 162 162 0.403775 0.121552 0.906747 545 
-0.88473 -9.0636 4.84988 252 252 252 0.99943 0.0194362 -0.0276199 1985 
-4.68552 -12.1533 4.17479 221 221 221 0.136486 0.197714 0.970711 1489 
-4.96664 0.497586 -0.965539 220 220 220 0.980276 0.101324 0.169687 1473 
-0.851201 -6.74779 3.32838 254 254 254 0.998439 0.0220013 -0.0513363 2017 
-0.175763 -11.4597 2.66752 249 249 249 0.77678 0.129216 0.616374 1937 
-5.63953 1.30705 1.14992 168 168 168 0.978436 0.18736 0.0869449 641 
-0.855545 -8.85268 5.34676 236 236 236 0.987629 -0.137073 -0.0761517 1729 
-0.84292 -6.45054 3.65079 254 254 254 0.998373 0.0199046 -0.0534282 2017 
-2.43671 -2.29968 1.40296 246 246 246 0.984533 0.028991 -0.172786 1889 
2.45225 0.860206 -0.442968 132 132 132 0.827118 0.318605 -0.462998 65 
-0.8025 -9.77442 7.50448 244 244 244 0.995022 -0.0969955 0.0228866 1857 
-0.857793 -9.32907 5.67367 252 252 252 0.999388 0.0276187 -0.0214812 1985 
-2.46043 -11.864 3.8057 219 219 219 0.137024 0.203616 0.969415 1457 
-1.90996 -11.8136 3.71935 212 212 212 0.14241 0.175177 0.974183 1345 
-1.79061 -10.1849 3.40123 209 209 209 0.176625 0.055714 0.9827 1297 
-1.15332 -10.1797 2.81845 255 255 255 0.954632 0.297786 0.00122546 2033 
-0.887354 -8.56916 4.39592 251 251 251 0.991379 -0.110916 -0.069751 1969 
-0.838683 -7.69719 3.20641 253 253 253 0.974342 -0.0548753 -0.218282 2001 
-1.92204 -7.03491 2.3055 253 253 253 0.929721 0.104205 -0.353213 2001 
-2.41668 -2.41891 1.48762 244 244 244 0.969748 0.0943335 -0.225143 1857 
-3.84134 -11.5327 3.92555 229 229 229 0.129695 0.219583 0.966935 1617 
-1.92237 -7.03828 1.3928 255 255 255 0.882872 0.287272 0.371498 2033 
-14.4744 0.0153193 1.87829 158 158 158 -0.0503812 0.16286 0.985362 481 
-1.88606 -1.41722 2.2683 203 203 203 0.556845 0.072632 -0.827435 1201 
-0.830645 -7.07454 3.61198 255 255 255 0.99855 0.0219577 -0.0491433 2033 
-0.80702 -7.1316 4.06938 251 251 251 0.998322 0.022045 -0.0535378 1969 
-8.18634 0.459234 2.02391 164 164 164 -0.0127407 0.193427 0.981032 577 
-7.76894 0.0195639 2.11645 168 168 168 -0.0108394 0.254123 0.967111 641 
-1.29225 -9.60242 2.09149 250 250 250 0.972496 0.148735 -0.179244 1953 
-0.0213256 4.19145 1.02577 119 119 119 0.940073 -0.166057 0.297804 -143 
-0.791812 -10.0759 6.44825 255 255 255 0.99269 0.120688 0.00108728 2033 
-1.51788 -5.60818 2.78232 196 196 196 0.505039 -0.057043 -0.86121 1089 
-5.87884 0.307376 2.08586 159 159 159 -0.0615356 0.196673 0.978536 497 
-0.880296 -8.09943 3.60902 248 248 248 0.971194 -0.212882 -0.107071 1921 
-0.799455 -9.97824 7.09557 250 250 250 0.996595 0.0818973 -0.00957241 1953 
-2.21452 -5.44276 1.84731 250 250 250 0.972881 0.0500478 -0.225826 1953 
-0.912495 -8.78715 3.96372 255 255 255 0.999447 0.0152821 -0.0295453 2033 
-0.859227 -8.45038 4.51274 247 247 247 0.961724 -0.226983 -0.153509 1905 
-1.61807 -6.6714 2.76362 222 222 222 0.661109 -0.0125263 -0.750185 1505 
-1.73017 -7.25904 2.62648 243 243 243 0.819998 0.0462563 -0.570494 1841 
-1.49631 -6.95615 2.86789 213 213 213 0.598277 -0.0235979 -0.800942 1361 
-3.83397 -11.73 3.9691 226 226 226 0.135881 0.194297 0.971486 1569 
-2.11129 -6.40751 1.87958 255 255 255 0.982155 0.132987 -0.132987 2033 
-2.07916 -2.86169 2.15626 223 223 223 0.766006 -0.0352673 -0.641865 1521 
-2.45217 1.37996 1.57074 233 233 233 0.996311 0.0379444 -0.0769729 1681 
-1.39389 -8.0814 1.4945 224 224 224 0.300503 0.366946 0.880368 1537 
-1.82343 -7.76081 2.26797 255 255 255 0.966901 0.177806 -0.182997 2033 
-1.28073 -8.48783 3.05999 228 228 228 0.65732 -0.0295583 -0.753032 1601 
-1.94837 -7.19995 1.64099 254 254 254 0.94698 0.257524 0.192121 2017 
-3.18499 -10.6955 3.68744 223 223 223 0.171509 0.07556 0.982281 1521 
-0.825526 -9.80784 5.31255 255 255 255 0.993475 0.114005 -0.00325729 2033 
-1.85317 -2.21897 2.32613 198 198 198 0.590217 -0.0552001 -0.805355 1121 
-0.870134 -9.41021 4.25077 255 255 255 0.995021 0.0996093 -0.0032132 2033 
-0.919537 -8.353 3.58971 253 253 253 0.995404 -0.07402 -0.0607627 2001 
-2.14858 -5.38586 2.06077 249 249 249 0.923808 0.0220263 -0.382221 1937 
-0.979645 -10.8239 2.61648 248 248 248 0.904268 0.0442086 -0.424671 1921 
-3.74916 -11.7139 3.95328 229 229 229 0.135881 0.194297 0.971486 1617 
-6.85105 -0.179594 2.17136 167 167 167 -0.0125079 0.167151 0.985852 625 
-1.21612 -9.68752 2.28718 255 255 255 0.958692 0.280194 0.0490026 2033 
-5.17445 -1.61089 1.69122 69 69 69 0.946858 0.321456 -0.0112572 -943 
-0.797111 -7.92199 3.97949 255 255 255 0.99268 -0.0898301 -0.0807334 2033 
-2.02122 -6.94862 1.90881 255 255 255 0.981287 0.180921 -0.0658984 2033 
-5.33249 -1.04683 1.58853 75 75 75 0.975568 0.217984 0.0273969 -847 
-1.88125 -3.99317 2.42334 216 216 216 0.674572 -0.0411844 -0.737059 1409 
-6.92526 5.33182 0.911659 239 239 239 0.0151185 0.980379 -0.196541 1777 
-2.14894 -1.25707 2.03548 244 244 244 0.827282 0.143553 -0.543135 1857 
-0.576744 -11.28 6.94457 252 252 252 0.979109 0.203255 0.00580729 1985 
-0.772201 -10.2203 6.29085 255 255 255 0.990769 0.135556 0.00110208 2033 
-0.807092 -7.45267 3.91787 253 253 253 0.998267 0.0284017 -0.0515438 2001 
-2.17472 -4.72628 0.787414 249 249 249 0.779252 0.151646 0.608087 1937 
-0.872555 -5.50115 3.41012 249 249 249 0.996884 0.0138308 -0.0776654 1937 
-5.50876 -0.0829871 1.67941 51 51 51 0.987804 0.149037 0.0450577 -1231 
-0.607217 -11.9215 3.45257 255 255 255 0.944457 0.304102 0.124588 2033 
-0.814916 -9.89735 5.42309 255 255 255 0.992979 0.118289 -0.00108522 2033 
-1.73312 -8.1528 1.98392 255 255 255 0.941542 0.296538 0.159885 2033 
-0.870614 -9.3677 4.79925 255 255 255 0.99711 0.075074 -0.0116312 2033 
-2.28474 -2.73313 1.64379 177 177 177 0.994785 -0.00321937 0.101947 785 
-0.776583 -10.188 7.54462 255 255 255 0.970349 0.204753 0.128447 2033 
-0.831655 -6.98005 3.65201 252 252 252 0.998439 0.0220013 -0.0513363 1985 
-3.99319 -11.8447 4.01414 228 228 228 0.133321 0.196807 0.971336 1601 
-1.75222 -8.05019 1.91384 255 255 255 0.935926 0.296214 0.190523 2033 
-0.717191 -10.5991 7.14384 251 251 251 0.993197 0.116399 0.00326352 1969 
-2.36552 -2.22366 1.66082 241 241 241 0.93435 0.00887443 -0.356245 1809 
-3.25429 -12.0658 3.95772 213 213 213 0.134176 0.203181 0.969904 1361 
-1.36344 -5.66833 -0.425905 228 228 228 0.987913 0.104797 -0.114216 1601 
-0.873963 -9.31068 4.8576 254 254 254 0.997847 0.0641398 -0.0136691 2017 
-5.48476 2.21734 1.17791 215 215 215 0.239752 -0.536736 0.808971 1393 
-2.76072 4.48769 0.0716438 219 219 219 0.971461 0.0705392 0.226468 1457 
-5.61661 2.7283 0.514267 195 195 195 0.865873 0.140686 0.480074 1073 
-0.806861 -9.95549 5.44494 255 255 255 0.992658 0.12095 -0.00108964 2033 
-0.885599 -9.29671 3.51028 255 255 255 0.994023 0.0638775 -0.0885319 2033 
-5.11465 -1.63179 1.97403 245 245 245 0.790494 0.396055 -0.467183 1873 
-0.805856 -9.96256 5.34536 255 255 255 0.992394 0.123096 0.00108935 2033 
-0.814565 -9.11683 6.34226 232 232 232 0.978996 -0.18211 -0.0916663 1665 
-12.3197 0.200609 1.95745 32 32 32 -0.0463686 0.189041 0.980874 -1535 
-2.00395 -11.8292 3.73412 217 217 217 0.141066 0.186818 0.972214 1425 
-2.15215 -4.13064 2.10299 236 236 236 0.858186 -0.00673615 -0.513295 1729 
-2.43376 -1.55207 1.45183 163 163 163 0.969465 0.241447 -0.0428967 561 
-1.63476 -0.591494 -0.0288098 162 162 162 0.232187 0.114169 0.965948 545 
-0.911948 -8.93647 3.82585 255 255 255 0.9986 0.049043 -0.0198259 2033 
-0.0705014 -10.4196 2.33674 249 249 249 0.748683 0.130011 0.650054 1937 
-3.92343 -10.8796 3.83127 222 222 222 0.181565 0.0339702 0.982792 1505 
-0.828275 -8.8701 5.69793 235 235 235 0.974506 -0.202866 -0.0958326 1713 
-9.06339 -0.159926 2.23801 213 213 213 -0.0196287 0.0402904 0.998995 1361 
-2.48984 2.17761 1.47753 233 233 233 0.995502 0.0428055 -0.0845134 1681 
-1.53465 -7.85536 2.83521 236 236 236 0.754288 0.0352471 -0.655596 1729 
-0.889281 -9.56771 3.89841 221 221 221 0.994753 0.102164 -0.00537704 1489 
-0.852319 -11.4201 3.49694 211 211 211 0.512293 0.297918 0.805482 1329 
-2.29717 -4.43077 1.74464 248 248 248 0.967352 0.0506532 -0.248324 1921 
-0.550263 -0.176974 -0.175871 234 234 234 0.925832 0.0792802 0.369527 1697 
-0.874891 -6.17992 3.17056 255 255 255 0.996438 0.0247229 -0.080618 2033 
-2.3654 -0.143525 1.81494 242 242 242 0.99337 0.102143 -0.0527552 1825 
-0.903237 -11.5848 3.53655 215 215 215 0.217002 0.23065 0.948531 1393 
-1.92644 -6.31241 1.04537 217 217 217 0.538328 0.268379 0.798859 1425 
-4.48431 -11.8513 4.08204 228 228 228 0.138441 0.191785 0.971624 1601 
-1.7226 -8.2109 2.03145 255 255 255 0.946915 0.291462 0.135657 2033 
-1.6222 -4.60815 2.65167 196 196 196 0.522598 -0.0602459 -0.850448 1089 
-2.78653 5.22261 -0.065616 215 215 215 0.956358 0.0729751 0.282939 1393 
-1.86143 -7.31067 1.46628 255 255 255 0.872257 0.30902 0.379044 2033 
-7.79968 0.888142 1.94794 139 139 139 -0.00804547 0.185046 0.982697 177 
-0.0290372 -9.80923 2.16775 252 252 252 0.676929 0.155981 0.719331 1985 
-1.39044 -5.17424 0.610631 172 172 172 0.173646 0.226668 0.958368 705 
-2.19425 -2.11868 1.98085 227 227 227 0.815649 -0.0179415 -0.578269 1585 
-2.13841 -5.84358 1.15541 255 255 255 0.934725 0.175867 0.308805 2033 
-0.876713 -8.93218 5.08824 241 241 241 0.998013 -0.0434841 -0.0456053 1809 
-5.66424 1.41415 1.1454 217 217 217 0.975189 0.193045 0.108354 1425 
-2.18378 -2.39121 2.00357 229 229 229 0.817867 -0.0179296 -0.575128 1617 
-0.0768589 -10.7443 2.40611 210 210 210 0.753028 0.126747 0.645666 1313 
-1.98232 -6.71221 1.28926 255 255 255 0.880247 0.266331 0.392725 2033 
-1.86672 -7.58833 1.79029 255 255 255 0.946889 0.273063 0.169815 2033 
-0.864893 -9.39711 5.1317 254 254 254 0.997737 0.0662354 -0.0115649 2017 
-1.15554 -8.21939 1.48267 208 208 208 0.202973 0.358442 0.91122 1281 
-0.909727 -8.78007 4.05776 255 255 255 0.999505 0.011162 -0.029427 2033 
-2.61922 2.62376 1.04958 150 150 150 0.978309 0.0105195 -0.206883 353 
-1.20248 -5.73932 2.92007 212 212 212 0.294833 -0.081826 -0.952039 1345 
-1.02306 -10.6027 2.94122 255 255 255 0.951081 0.307813 0.026384 2033 
-0.904548 -8.74925 4.27377 251 251 251 0.999235 -0.0154044 -0.0359437 1969 
-2.23001 -5.28491 1.18606 250 250 250 0.968892 0.121271 0.215735 1953 
-0.604125 -11.1395 6.82925 254 254 254 0.975457 0.220037 0.00823667 2017 
-0.794116 -8.86348 5.92506 224 224 224 0.96144 -0.249741 -0.115166 1537 
-5.49713 -0.0170324 1.34092 40 40 40 0.988535 0.131882 0.0735274 -1407 
-0.779803 -10.1667 6.56296 252 252 252 0.992057 0.125785 0.00109378 1985 
-0.709315 -10.58 7.6215 250 250 250 0.988432 0.151462 0.0078536 1953 
-0.923656 -8.45412 3.60668 255 255 255 0.998097 -0.0391618 -0.0476292 2033 
-1.13385 -10.157 2.60357 255 255 255 0.920617 0.341863 0.188663 2033 
-0.882911 -11.0345 3.04086 255 255 255 0.94471 0.322679 0.0583155 2033 
-9.65736 0.52146 1.99889 158 158 158 -0.0102111 0.166782 0.985941 481 
-1.18519 -9.77441 2.31211 255 255 255 0.964003 0.265556 0.0133384 2033 
2.9582 0.845597 -0.437346 151 151 151 -0.0702884 -0.796124 0.601038 369 
-0.921057 -8.7861 3.65072 255 255 255 0.999257 0.0319021 -0.0216111 2033 
-5.85989 -0.247634 2.26847 199 199 199 -0.00918611 0.0377651 0.999244 1137 
-2.41345 -2.21362 0.765156 246 246 246 0.962514 0.0773562 0.259968 1889 
-2.68348 2.20707 0.68013 230 230 230 0.998726 0.0486426 -0.0134543 1633 
-1.99145 -3.66613 0.494249 217 217 217 0.440002 0.139023 0.88717 1425 
-2.56458 2.30518 1.91759 177 177 177 0.995589 0.0450046 0.0823254 785 
-2.40043 -1.77567 1.58461 240 240 240 0.940625 -0.00375749 -0.339427 1793 
-8.12938 0.50837 2.01413 163 163 163 -0.012723 0.188532 0.981985 561 
-4.79977 -11.0057 4.01415 219 219 219 0.227479 -0.0758264 0.970826 1457 
-0.568011 -11.3308 7.46695 252 252 252 0.974966 0.222278 0.00588037 1985 
-3.4225 -11.6742 3.89911 224 224 224 0.138508 0.189336 0.972094 1537 
-1.49075 -8.93245 2.13647 255 255 255 0.890077 0.357527 0.28273 2033 
-0.993178 -11.3726 2.58312 245 245 245 0.865633 0.00939447 -0.500591 1873 
-2.38501 -3.7122 1.34649 251 251 251 0.998762 0.0446897 -0.0218252 1969 
-1.96623 -7.19967 1.75923 255 255 255 0.966044 0.238011 0.10055 2033 
-4.92615 -0.784257 2.26093 202 202 202 -0.0959671 0.208136 -0.973381 1185 
-0.821043 -9.79645 6.37721 255 255 255 0.996609 0.0817241 -0.00955216 2033 
-0.858646 -9.42181 5.45044 252 252 252 0.998181 0.0576075 -0.0178059 1985 
-2.38441 -3.58462 1.44478 251 251 251 0.98786 0.0736511 -0.136781 1969 
-5.11325 -1.66564 1.94516 114 114 114 0.813748 0.401279 -0.420463 -223 
-1.97436 -6.91718 2.19312 255 255 255 0.950862 0.120681 -0.285126 2033 
-1.91852 -3.65219 0.457867 206 206 206 0.411011 0.143641 0.900243 1249 
-0.701238 -10.7596 7.64508 252 252 252 0.991551 0.129333 0.00994868 1985 
-5.52023 0.105375 1.40048 46 46 46 0.99139 0.119513 0.0534964 -1311 
-2.16479 -6.05968 1.43797 255 255 255 0.977052 0.165962 0.133518 2033 
-2.4995 0.966926 1.3828 225 225 225 0.931632 0.0114702 -0.363222 1553 
-2.43517 -2.73016 1.21708 247 247 247 0.985538 0.0359009 -0.165607 1905 
-0.695645 -10.7902 7.65206 253 253 253 0.988886 0.147713 0.0169137 2001 
-1.7214 -7.24562 2.63986 240 240 240 0.812015 0.0434758 -0.582015 1793 
-1.50748 -8.9959 2.30478 255 255 255 0.939149 0.318471 0.128743 2033 
-0.817689 -8.99443 6.06012 235 235 235 0.976889 -0.191426 -0.0950954 1713 
-0.896746 -8.96061 4.48238 253 253 253 0.999486 0.0193976 -0.0255231 2001 
-1.64759 -8.46424 2.4525 254 254 254 0.960227 0.21265 -0.180951 2017 
-0.814191 -9.81315 6.84925 251 251 251 0.997988 0.0619151 -0.0136423 1969 
-1.70836 -6.54896 2.67828 231 231 231 0.716707 0.00138094 -0.697373 1649 
-2.80618 4.81209 0.57201 219 219 219 0.95061 0.157314 -0.267569 1457 
-0.897151 -9.14095 3.92091 255 255 255 0.997071 0.0752307 -0.0137746 2033 
-4.06966 -11.7647 4.00744 224 224 224 0.133058 0.193885 0.971959 1537 
-2.24357 -4.58236 1.89396 250 250 250 0.939905 0.0399685 -0.339088 1953 
-5.21889 -1.47882 1.85911 73 73 73 0.928748 0.334572 -0.15965 -879 
-4.31718 -11.3089 3.94691 227 227 227 0.144416 0.164508 0.975747 1585 
-1.97384 -9.91219 3.45049 212 212 212 0.256971 -0.170865 0.951195 1345 
-0.67434 -10.8802 7.67638 249 249 249 0.978282 0.206877 0.0128568 1937 
-0.839636 -7.3745 3.36257 253 253 253 0.998439 0.0220013 -0.0513363 2001 
2.42615 0.756656 -0.844585 132 132 132 0.93576 0.351393 0.0296045 65 
-1.82693 -6.77204 2.52563 244 244 244 0.830951 0.0460864 -0.554433 1857 
-0.808909 -9.94734 5.55193 255 255 255 0.992948 0.118545 -0.00108757 2033 
-2.12942 -6.16169 1.34356 254 254 254 0.958873 0.187 0.213525 2017 
-2.80581 -10.4862 3.60529 214 214 214 0.184663 0.0364621 0.982125 1377 
-0.749447 -10.0177 2.19897 219 219 219 0.434386 0.373922 0.819446 1457 
-5.86028 3.57988 1.60753 230 230 230 0.995083 0.0912618 -0.0384839 1633 
-1.29043 -9.03338 3.07464 248 248 248 0.862728 0.034181 -0.504511 1921 
-0.732265 -11.4972 3.36415 255 255 255 0.942774 0.307982 0.127765 2033 
-2.26378 -4.39296 1.8559 247 247 247 0.943952 0.0344881 -0.328276 1905 
-0.636541 -11.0197 6.93368 252 252 252 0.972055 0.234388 0.0130876 1985 
-6.69143 -0.419033 2.22359 193 193 193 -0.0170999 0.165299 0.986095 1041 
-0.824296 -9.58537 6.79336 247 247 247 0.999558 0.00505337 -0.0293096 1905 
-0.653763 -10.9707 7.70081 252 252 252 0.973694 0.227785 0.00590117 1985 
-0.821419 -7.43484 3.63628 255 255 255 0.99838 0.0283452 -0.0493416 2033 
-2.13428 -10.3373 3.4747 218 218 218 0.177024 0.0734591 0.981461 1441 
-7.68436 -0.290016 2.17785 174 174 174 -0.019059 0.14014 0.989948 737 
-4.83797 0.212387 -0.872427 160 160 160 0.217296 0.976071 -0.00822202 513 
-0.883389 -11.0131 3.20498 255 255 255 0.956407 0.291723 -0.0135399 2033 
-0.831113 -9.69487 6.16675 254 254 254 0.99711 0.075074 -0.0116312 2017 
-0.895469 -11.6753 2.74375 245 245 245 0.846909 0.0149535 -0.531527 1873 
-2.44719 -0.491966 0.416382 237 237 237 0.917646 0.0883659 0.38745 1745 
-5.73573 2.88694 0.813376 199 199 199 0.973392 0.0650564 0.219719 1137 
-0.879383 -9.22957 4.85179 255 255 255 0.998535 0.0511266 -0.0177378 2033 
-1.76516 -7.26348 2.57076 130 130 130 0.847167 0.0602119 -0.527904 33 
-0.861386 -8.92201 5.37479 237 237 237 0.99352 -0.0954228 -0.0617442 1745 
-2.09733 -6.1324 2.0711 251 251 251 0.947352 0.0877906 -0.307922 1969 
-1.70315 -5.31908 2.64143 216 216 216 0.609135 -0.0407966 -0.792016 1409 
-1.95336 -4.0289 2.35552 224 224 224 0.723518 -0.0296177 -0.689669 1537 
-5.09088 -0.707979 1.06466 60 60 60 0.217002 0.23065 0.948531 -1087 
1.16726 0.575869 -0.63498 223 223 223 0.755642 0.601043 -0.260294 1521 
-2.25933 -5.04221 1.18166 254 254 254 0.976034 0.105685 0.190233 2017 
-1.6557 -6.60843 2.72869 224 224 224 0.683029 -0.00973768 -0.730326 1537 
-0.831879 -8.23942 4.25321 247 247 247 0.959734 -0.2494 -0.12927 1905 
-0.563552 -12.0953 3.51135 247 247 247 0.951537 0.307228 0.0136822 1905 
-3.75156 0.781029 1.07695 213 213 213 -0.0427434 0.970886 -0.235699 1361 
-2.06508 -4.43123 2.23483 235 235 235 0.813364 -0.00136242 -0.581753 1713 
-0.571962 -11.3201 7.54884 248 248 248 0.974833 0.222785 0.0082513 1921 
-2.27517 -4.74937 1.75014 251 251 251 0.973166 0.0549466 -0.22345 1969 
-15.9327 -0.200535 2.64148 206 206 206 0.960852 0.0360475 0.274707 1249 
-2.27669 -3.90009 0.790399 249 249 249 0.917294 0.0943268 0.386877 1937 
-2.21716 1.09089 -0.0301959 195 195 195 0.445815 0.117469 0.887384 1073 
-2.09256 -11.177 3.61024 218 218 218 0.127582 0.228101 0.965242 1441 
-4.10039 -11.2061 3.89698 231 231 231 0.148837 0.15384 0.976822 1649 
-2.19383 -1.80896 0.344304 214 214 214 0.541948 0.114783 0.832537 1377 
-0.843548 -9.62566 5.48847 255 255 255 0.996207 0.0864874 -0.00960971 2033 
-0.607565 -11.1682 7.75691 250 250 250 0.973694 0.227785 0.00590117 1953 
-14.5172 -0.412461 1.93735 153 153 153 -0.0434071 0.101283 0.99391 401 
-1.99364 -7.09807 1.89265 255 255 255 0.979883 0.198324 -0.0222967 2033 
-1.95856 -5.45135 2.38696 238 238 238 0.796525 -0.00411287 -0.604591 1761 
-4.72523 -11.5065 4.04267 232 232 232 0.140719 0.186357 0.972353 1665 
-1.33213 -5.68122 -0.0993924 248 248 248 0.983565 0.161731 -0.0802666 1921 
-1.36882 -9.30716 1.95829 251 251 251 0.975933 0.214873 0.0372127 1969 
-0.597711 -11.2102 7.76921 251 251 251 0.974335 0.225028 0.00589078 1969 
-1.27158 -9.59258 2.12829 249 249 249 0.976516 0.195796 -0.0898936 1937 
-0.96365 -5.36487 2.95183 227 227 227 0.928436 -0.0166939 -0.371118 1585 
-0.893886 -5.33734 3.17714 254 254 254 0.997816 0.0157716 -0.0641378 2017 
-1.36955 -9.42542 2.72017 255 255 255 0.95667 0.240831 -0.163658 2033 
-2.16416 -5.51307 2.00603 250 250 250 0.942721 0.045014 -0.330531 1953 
-1.64917 -7.56186 1.3738 220 220 220 0.473784 0.355737 0.805593 1473 
-6.60757 0.0274151 2.1324 168 168 168 -0.0036127 0.263727 0.964591 641 
-0.812346 -9.0841 6.29606 231 231 231 0.977459 -0.188589 -0.0949109 1649 
-2.3481 -4.34643 1.29817 250 250 250 0.996115 0.0730994 0.0490966 1953 
-0.583943 -11.2702 7.78684 252 252 252 0.974966 0.222278 0.00588037 1985 
-0.861415 -6.07341 3.46499 252 252 252 0.997811 0.0221736 -0.0622972 1985 
-0.858898 -9.47543 5.14509 255 255 255 0.996937 0.0773394 -0.0116539 2033 
-1.81653 -5.45756 0.783866 207 207 207 0.314412 0.220515 0.923319 1265 
-1.58645 -6.37995 2.78042 216 216 216 0.611542 -0.0293876 -0.790666 1409 
-1.27141 -10.7801 3.41424 219 219 219 0.127947 0.198887 0.971634 1457 
-5.06793 -11.506 4.11382 244 244 244 0.368173 0.162222 0.915496 1857 
-0.812713 -7.73042 3.64711 255 255 255 0.997905 -0.0179138 -0.0621715 2033 
-1.76842 -5.76324 2.6059 225 225 225 0.691356 -0.0210352 -0.722208 1553 
-0.844444 -6.51197 3.60802 254 254 254 0.998322 0.022045 -0.0535378 2017 
-4.4722 -11.3181 3.97226 226 226 226 0.145976 0.155957 0.976918 1569 
-0.923045 -10.7999 2.71353 247 247 247 0.964985 0.170598 -0.199248 1905 
-2.18186 -6.02268 1.66504 255 255 255 0.990388 0.134386 -0.0327494 2033 
-4.77127 0.377434 -0.55409 139 139 139 0.142958 0.687702 -0.711779 177 
-2.25918 -4.40558 1.87078 247 247 247 0.940682 0.0346499 -0.337516 1905 
-0.751649 -9.16411 1.78956 193 193 193 0.176776 0.318754 0.931207 1041 
-6.41104 1.16268 1.90788 131 131 131 -0.014571 0.142348 0.989709 49 
-4.72706 -10.9758 3.99944 223 223 223 0.222713 -0.0783852 0.971728 1521 
-1.43901 -9.23312 2.59622 255 255 255 0.95961 0.262181 -0.102031 2033 
-4.91588 0.275553 -1.05218 185 185 185 0.516377 0.783413 0.34586 913 
-2.03543 -6.752 2.04011 255 255 255 0.97037 0.138989 -0.197644 2033 
-1.59003 -7.41014 2.79076 231 231 231 0.730331 0.0181535 -0.682852 1649 
-2.27706 -2.39068 1.85371 236 236 236 0.880464 -0.003984 -0.474096 1729 
-0.646357 -10.9893 7.36403 252 252 252 0.973826 0.227265 0.00353262 1985 
1.29861 0.602017 -0.874709 184 184 184 0.229407 0.849263 -0.475526 897 
-1.41953 -8.71489 1.79821 243 243 243 0.637449 0.373904 0.673687 1841 
-2.40914 -3.27141 1.22037 249 249 249 0.998489 0.0512314 0.0198652 1937 
-2.42351 0.533791 0.166755 215 215 215 0.740351 0.107876 0.663508 1393 
-5.41742 -0.650225 1.7987 58 58 58 0.981099 0.192487 0.019832 -1119 
-4.427 -11.645 4.02932 226 226 226 0.129518 0.214153 0.968176 1569 
-1.19932 -9.95987 2.95696 255 255 255 0.962299 0.228497 -0.147544 2033 
-1.68394 -7.70531 1.44681 231 231 231 0.625223 0.369226 0.687581 1649 
-0.840142 -7.36889 3.35549 255 255 255 0.998439 0.0220013 -0.0513363 2033 
-0.845333 -9.63112 5.12349 255 255 255 0.995188 0.0976938 -0.0075149 2033 
-2.3093 2.27577 -0.141464 197 197 197 0.457132 0.118199 0.88151 1105 
-2.0897 0.572719 -0.0215277 188 188 188 0.400549 0.11863 0.908563 961 
-7.1693 -0.141763 2.15656 173 173 173 -0.0126476 0.182816 0.983066 721 
-3.52455 -11.7501 3.92994 221 221 221 0.138783 0.192259 0.971481 1489 
-0.133487 -10.9535 2.51478 249 249 249 0.761276 0.123169 0.636623 1937 
-0.769843 -10.2456 6.48003 255 255 255 0.985666 0.168616 0.00565824 2033 
-1.41889 -8.86838 1.88483 250 250 250 0.770902 0.350704 0.531712 1953 
-2.02744 -6.08944 2.24991 247 247 247 0.896544 0.0557789 -0.439429 1905 
-4.3783 -12.1243 4.12553 228 228 228 0.134439 0.20614 0.969243 1601 
-0.708856 -10.1732 0.895243 218 218 218 0.987155 0.153918 -0.0428192 1441 
-7.36519 -0.0967817 2.14483 174 174 174 -0.0129095 0.210073 0.977601 737 
-1.83036 -5.30258 2.53108 240 240 240 0.705546 -0.0210401 -0.708352 1793 
-0.984767 -10.795 2.60636 250 250 250 0.906091 0.0496672 -0.420158 1953 
-0.781522 -10.1638 6.68051 253 253 253 0.992394 0.123096 0.00108935 2001 
-0.904668 -8.55095 4.07664 254 254 254 0.996634 -0.0641237 -0.0510816 2017 
-2.75707 0.245669 2.13389 134 134 134 -0.185388 0.154703 0.970411 97 
-1.83432 -7.18174 2.4685 123 123 123 0.883765 0.0821135 -0.460671 -79 
-1.042 -5.94735 2.98347 225 225 225 0.507207 -0.0656715 -0.859318 1553 
-2.07045 -6.51534 1.41134 255 255 255 0.951082 0.215723 0.22115 2033 
-1.26888 -9.74588 2.83323 253 253 253 0.959567 0.235614 -0.154005 2001 
-0.884514 -9.28552 3.92675 255 255 255 0.995794 0.0911114 -0.00964709 2033 
-4.14562 -11.8965 4.04534 226 226 226 0.131015 0.202247 0.970531 1569 
-0.843101 -7.00539 3.40599 254 254 254 0.99855 0.0219577 -0.0491433 2017 
-2.21447 -4.77498 1.94639 247 247 247 0.934512 0.0322246 -0.35447 1905 
-0.784927 -8.25114 4.55514 244 244 244 0.931312 -0.28038 -0.232476 1857 
-0.808742 -7.12398 4.0262 255 255 255 0.998322 0.022045 -0.0535378 2033 
-0.763252 -9.97318 2.18021 201 201 201 0.399163 0.337037 0.852687 1169 
-0.890234 -9.18121 4.23112 255 255 255 0.99744 0.0705686 -0.0115859 2033 
-2.3576 -3.82014 1.05331 248 248 248 0.982218 0.0707581 0.173897 1921 
-1.64839 -8.48534 2.12321 255 255 255 0.942067 0.304986 0.139616 2033 
-2.49311 -10.6429 3.56778 221 221 221 0.154068 0.126952 0.979871 1489 
-0.920801 -8.80545 3.60606 255 255 255 0.99908 0.0381486 -0.0195898 2033 
-5.87297 1.78858 0.963432 200 200 200 0.314244 -0.610761 0.726789 1153 
-1.40358 -9.3169 2.68094 255 255 255 0.956466 0.24344 -0.160963 2033 
-4.23475 -11.6378 4.00139 222 222 222 0.132366 0.214613 0.967688 1505 
-1.55601 -8.09977 1.56287 229 229 229 0.560241 0.389376 0.731106 1617 
-0.866634 -9.4226 4.66574 254 254 254 0.99627 0.0861237 -0.00531628 2017 
-1.06592 -6.69747 0.962728 156 156 156 0.0727228 0.276857 0.958155 449 
-1.15702 -10.0716 3.04883 255 255 255 0.961433 0.236761 -0.139964 2033 
-2.12783 -5.63162 1.01941 254 254 254 0.876355 0.17762 0.447719 2017 
-2.52644 1.25082 1.32284 224 224 224 0.931161 0.00381103 -0.364588 1537 
-2.49635 -1.44851 0.92487 242 242 242 0.99392 0.0592551 0.0927957 1825 
-0.675402 -10.8602 7.34754 253 253 253 0.976783 0.214073 0.0081886 2001 
-2.98356 -10.9286 3.68644 222 222 222 0.146934 0.162004 0.97579 1505 
-0.835112 -7.51315 3.36847 255 255 255 0.997954 0.03069 -0.0560886 2033 
-2.4185 -0.984136 0.459424 236 236 236 0.910468 0.0889931 0.403892 1729 
-1.85249 -4.60838 2.48685 234 234 234 0.679322 -0.0353078 -0.73299 1697 
-6.53159 0.515997 2.03347 166 166 166 -0.022449 0.211493 0.977122 609 
-1.74289 -6.69292 2.63859 234 234 234 0.759266 0.0153246 -0.6506 1697 
-3.43159 -10.5824 3.73023 216 216 216 0.219229 -0.062462 0.973672 1409 
-0.823015 -7.26782 3.66651 254 254 254 0.9986 0.0198259 -0.049043 2017 
-0.771089 -8.50815 5.12922 191 191 191 0.928481 -0.341781 -0.145291 1009 
-0.835319 -9.71861 4.45706 255 255 255 0.993158 0.11665 0.00545092 2033 
-1.16934 -9.94297 3.26621 255 255 255 0.856739 0.166629 0.488091 2033 
-0.843997 -6.50093 3.62938 251 251 251 0.998373 0.0199046 -0.0534282 1969 
-5.95714 5.34539 1.28237 239 239 239 -0.104779 0.970784 0.21587 1777 
-5.64323 1.32924 1.19222 160 160 160 0.978994 0.200545 0.0367864 513 
-2.08961 -5.46375 0.892989 221 221 221 0.704065 0.196519 0.682402 1489 
-2.07804 -5.252 2.20343 242 242 242 0.870606 0.00399972 -0.491965 1825 
-1.36204 -9.40741 2.34008 255 255 255 0.902366 0.356545 0.242098 2033 
-2.38614 0.0407386 1.78279 241 241 241 0.996461 0.0726473 -0.0422872 1809 
-5.32301 -1.11198 1.86863 92 92 92 0.969574 0.236512 -0.0631523 -575 
-8.02319 0.722731 1.97561 174 174 174 -0.0103293 0.180189 0.983578 737 
-2.53759 1.578 1.29927 221 221 221 0.944922 0.0189237 -0.326749 1489 
-0.853251 -9.36843 5.84034 254 254 254 0.999444 0.0255221 -0.0214385 2017 
-0.843602 -6.87521 3.47244 254 254 254 0.99865 0.017666 -0.0488414 2017 
-0.792505 -10.0045 7.51396 251 251 251 0.974348 0.0777997 0.21117 1969 
-5.29663 -0.315531 1.02653 98 98 98 0.532914 0.225759 0.815497 -479 
-2.12584 -5.64561 1.021 254 254 254 0.874053 0.180686 0.450982 2017 
-0.584499 0.574375 -0.228883 231 231 231 0.934156 0.0868671 0.346132 1649 
-0.881522 -5.70484 3.25556 252 252 252 0.997668 0.0222174 -0.0645363 1985 
-0.790799 -11.2198 2.94427 255 255 255 0.967884 0.204918 -0.145634 2033 
-0.884153 -9.20034 4.6481 255 255 255 0.998223 0.0574893 -0.0156789 2033 
-0.775465 -10.207 6.48976 254 254 254 0.989666 0.143285 0.00555368 2017 
-1.73968 -4.20774 2.54904 201 201 201 0.57938 -0.0521583 -0.813387 1169 
-0.798012 -7.57177 4.04126 253 253 253 0.998603 0.0240501 -0.0470546 2001 
-2.28823 -5.01784 1.44727 255 255 255 0.995794 0.0911114 0.00964709 2033 
-1.07588 -10.1551 2.45657 252 252 252 0.971006 0.227521 -0.0733539 1985 
-0.897332 -9.0715 4.19629 255 255 255 0.998385 0.0551766 -0.0135339 2033 
-2.48224 -0.553442 1.35965 170 170 170 0.968227 0.068536 -0.240499 673 
-0.904774 -8.22086 3.58096 252 252 252 0.985708 -0.145899 -0.0842182 1985 
-1.92896 -7.32898 2.11586 255 255 255 0.973072 0.176346 -0.148435 2033 
-2.21597 -5.74407 1.68 254 254 254 0.990756 0.111618 -0.0770972 2017 
-1.39102 -9.32448 2.32804 255 255 255 0.908597 0.352136 0.224613 2033 
-5.64541 1.37812 1.20807 148 148 148 0.974029 0.22605 0.0130186 321 
-1.7773 -7.72375 1.62666 255 255 255 0.88437 0.320904 0.338983 2033 
-0.786973 -10.118 6.6981 255 255 255 0.992979 0.118289 -0.00108522 2033 
-2.59061 0.482363 0.709371 236 236 236 0.99357 0.0572566 0.097673 1729 
-5.12798 0.587611 -0.100369 228 228 228 0.837807 0.545196 -0.0289851 1601 
-0.85308 -6.9104 3.25585 254 254 254 0.997472 0.017982 -0.0687547 2017 
-0.708699 -10.6735 6.51953 248 248 248 0.992212 0.124164 0.00988916 1921 
-2.56838 0.396492 0.591413 233 233 233 0.979985 0.0687075 0.186836 1681 
-0.869515 -9.34682 5.00075 255 255 255 0.997988 0.0619151 -0.0136423 2033 
-2.2854 -3.91758 1.82599 244 244 244 0.935169 0.01142 -0.354019 1857 
-2.71104 3.69302 0.113894 221 221 221 0.964417 0.0904539 0.24843 1489 
-1.90738 -5.9961 2.45133 239 239 239 0.805345 0.0151952 -0.592612 1777 
-0.805686 -7.62574 3.82461 255 255 255 0.998437 0.026247 -0.0493444 2033 
-0.838094 -7.48008 3.31227 255 255 255 0.997383 0.026668 -0.0672033 2033 
-1.34771 -6.51057 0.944064 188 188 188 0.169504 0.26985 0.947866 961 
-1.05038 -6.82265 0.998023 160 160 160 0.0703059 0.279945 0.957438 513 
-1.33449 -5.80317 -0.299244 239 239 239 0.986178 0.12521 -0.108515 1777 
-7.01906 0.067196 2.11804 172 172 172 -0.0209468 0.279702 0.959858 705 
-0.771063 -10.2262 6.19989 255 255 255 0.991102 0.1331 0.0011 2033 
-1.20513 -9.87914 2.23722 248 248 248 0.964357 0.144069 -0.221945 1921 
-2.12848 -10.7835 3.53522 223 223 223 0.14241 0.175177 0.974183 1521 
-4.33811 -10.8569 3.91675 218 218 218 0.224078 -0.073042 0.97183 1441 
-2.4959 -1.56888 1.01443 245 245 245 0.998152 0.0557451 0.0241912 1873 
-0.854249 -11.1663 3.42225 251 251 251 0.773996 0.325303 0.543239 1969 
-2.8011 0.848666 2.03172 181 181 181 -0.117777 0.206427 0.971348 849 
-3.30645 -10.4394 3.71456 216 216 216 0.239178 -0.122821 0.963176 1409 
-3.5764 1.18549 0.0403469 204 204 204 0.61037 0.776149 0.158244 1217 
-11.9266 -0.198063 2.03465 151 151 151 -0.0611234 0.0833501 0.994644 369 
-0.872757 -9.03638 5.27168 241 241 241 0.998897 -0.0238573 -0.0404538 1809 
-0.171414 -11.4671 2.6625 252 252 252 0.77678 0.129216 0.616374 1985 
-1.90872 -9.86765 3.44194 210 210 210 0.260334 -0.186732 0.947289 1313 
-1.43903 -9.11917 2.20784 255 255 255 0.892569 0.359114 0.272688 2033 
-1.08158 -10.8873 2.4356 250 250 250 0.865851 0.00133413 -0.500299 1953 
-5.45089 -0.428657 1.45258 70 70 70 0.986956 0.155835 0.0404017 -927 
-0.761426 -10.3229 7.55602 252 252 252 0.971823 0.229169 0.0551476 1985 
-2.77023 7.01161 -0.497821 205 205 205 0.842087 0.063262 0.535618 1233 
-0.803294 -7.77256 3.8222 254 254 254 0.998042 -0.0178785 -0.0599456 2017 
-0.847344 -9.53824 5.67955 255 255 255 0.997737 0.0662354 -0.0115649 2033 
-2.62382 -11.414 3.73817 225 225 225 0.13134 0.202748 0.970383 1553 
-0.822682 -9.4042 6.7403 235 235 235 0.9952 -0.0784231 -0.0585412 1713 
-4.96721 -11.0508 4.05001 234 234 234 0.298951 -0.0763555 0.951209 1697 
-4.72153 -11.8471 4.11449 227 227 227 0.133913 0.200232 0.970554 1585 
-1.36164 -8.06358 1.47653 221 221 221 0.282872 0.363693 0.887531 1489 
-0.718261 -10.2253 0.608133 230 230 230 0.981721 0.183998 -0.0486706 1633 
-1.98336 -7.02046 2.10045 253 253 253 0.968845 0.147572 -0.198902 2001 
-0.804347 -7.71782 3.81349 255 255 255 0.998488 0.00516281 -0.0547258 2033 
-2.77998 4.69406 0.0859369 219 219 219 0.974956 0.0725377 0.210236 1457 
-1.40837 -9.34841 2.5463 255 255 255 0.956876 0.290371 -0.00857635 2033 
-0.615665 -10.0423 2.03009 194 194 194 0.999034 0.0300228 0.0320933 1057 
-0.793669 -7.60333 4.10599 254 254 254 0.998811 0.0197065 -0.044599 2017 
-2.2123 -5.37973 1.87014 252 252 252 0.968254 0.0404973 -0.246666 1985 
-2.29527 -3.74306 1.80346 246 246 246 0.937301 -0.00377437 -0.3485 1889 
-1.22833 -9.67062 2.29573 255 255 255 0.951375 0.295434 0.0871986 2033 
-0.806252 -9.95926 5.45978 254 254 254 0.992658 0.12095 -0.00108964 2017 
-0.829919 -9.7734 5.29427 255 255 255 0.99401 0.109244 -0.00324486 2033 
-1.73573 -5.11743 0.677912 203 203 203 0.293203 0.20903 0.932919 1201 
-3.73548 -11.0369 3.81645 226 226 226 0.152566 0.137682 0.978656 1569 
-1.08964 -10.3717 2.78347 255 255 255 0.933801 0.335733 0.123691 2033 
-1.75147 -7.97511 1.81268 255 255 255 0.916154 0.308279 0.256176 2033 
-0.804445 -7.80328 3.80211 254 254 254 0.997052 -0.039796 -0.0656096 2017 
-0.928219 -8.5485 3.46563 252 252 252 0.999371 -0.00101253 -0.0354387 1985 
-1.19248 -9.83249 2.38244 255 255 255 0.944402 0.308567 0.113542 2033 
-7.59547 0.701965 1.98408 156 156 156 -0.00804547 0.185046 0.982697 449 
-2.37317 -0.243418 1.65032 233 233 233 0.958488 0.0491209 -0.280871 1681 
-0.852495 -8.7736 5.24496 236 236 236 0.981369 -0.17062 -0.0883353 1729 
-1.30785 -9.66154 2.71662 255 255 255 0.96009 0.265339 -0.0884462 2033 
-1.74355 -6.37295 2.64047 228 228 228 0.726206 0.00138325 -0.687475 1601 
-1.76169 -4.15271 2.53049 206 206 206 0.592146 -0.0522898 -0.804132 1249 
-1.4189 -7.35703 2.93701 215 215 215 0.5871 -0.023595 -0.809171 1393 
1.14024 1.02194 -0.659383 217 217 217 0.994937 0.0743152 -0.0676601 1425 
-4.89306 -11.0178 4.03784 220 220 220 0.257472 -0.0909477 0.961996 1473 
-5.00529 -11.9046 4.17546 244 244 244 0.223822 0.191656 0.9556 1857 
-2.43736 -2.69564 1.15443 248 248 248 0.998206 0.0537577 -0.0263518 1921 
-4.66092 -12.1016 4.15972 227 227 227 0.136755 0.20066 0.970069 1585 
-1.70314 -8.11366 1.81262 255 255 255 0.896065 0.328409 0.298688 2033 
-5.62673 1.22662 1.07594 143 143 143 0.9699 0.168287 0.175995 241 
-0.925941 -8.53873 3.53126 255 255 255 0.999395 -0.00915011 -0.0335504 2033 
-1.53059 -8.82603 2.13339 255 255 255 0.904662 0.344563 0.250725 2033 
-1.29682 -7.90915 1.39661 216 216 216 0.240681 0.348622 0.905834 1409 
-2.93049 -11.8313 3.86416 219 219 219 0.134176 0.203181 0.969904 1457 
-0.641548 -11.0128 7.27716 253 253 253 0.973554 0.228306 0.00828053 2001 
-4.80124 0.229702 -0.99355 174 174 174 0.214867 0.952714 0.214867 737 
