ply
format ascii 1.0
comment Created by CloudCompare v2.11.3 (Anoia)
comment Created 2021/10/31 16:58
obj_info Generated by CloudCompare!
element vertex 659
property float x
property float y
property float z
property uchar red
property uchar green
property uchar blue
property float nx
property float ny
property float nz
property float scalar_Scalar_field
end_header
0.471742 -13.7088 73.3333 252 252 252 0.999443 -0.00101056 -0.0333485 1985 
0.335537 -15.5744 72.5207 247 247 247 0.942132 0.325464 0.0803777 1905 
-0.638293 -10.9287 71.93 244 244 244 0.877052 0.039556 -0.478764 1857 
-0.485673 -12.1089 72.069 249 249 249 0.898251 0.0814083 -0.431878 1937 
0.541228 -12.168 72.8509 255 255 255 0.992692 0.0142912 -0.119827 2033 
0.538633 -14.6401 74.1112 255 255 255 0.994296 0.106647 0.00107724 2033 
-0.981423 -5.9315 70.0019 231 231 231 0.790805 0.10086 0.603701 1649 
-4.87122 0.261448 70.5837 164 164 164 -0.102165 0.994762 0.00322626 577 
0.638866 -13.4336 74.3744 137 137 137 0.815048 -0.441817 -0.374826 145 
-0.740363 -16.3511 73.3012 215 215 215 0.126924 0.216669 0.967959 1393 
-1.02638 -8.11142 70.9184 249 249 249 0.998811 0.044599 -0.0197065 1937 
-0.507413 -9.41692 72.0906 232 232 232 0.699458 -0.038307 -0.713646 1665 
-1.15849 -5.39407 70.7407 240 240 240 0.994423 0.0431396 -0.0962345 1793 
-4.36816 0.288958 70.9028 231 231 231 -0.134455 0.951833 0.275566 1649 
0.490713 -14.1587 73.5079 255 255 255 0.997559 0.0684703 -0.0136941 2033 
-1.00168 -8.1886 71.1532 250 250 250 0.984525 0.0218783 -0.173875 1953 
-0.676853 -8.75568 70.201 218 218 218 0.495186 0.135051 0.858226 1441 
0.351057 -15.6236 72.638 255 255 255 0.95636 0.290524 -0.0311721 2033 
0.540545 -14.5528 75.2217 255 255 255 0.998093 0.0596971 -0.0157098 2033 
-0.970903 -7.60041 71.3223 244 244 244 0.953464 0.194996 -0.229961 1857 
0.00312746 -13.472 71.2884 234 234 234 0.389157 0.392308 0.833457 1697 
0.740171 -16.8526 72.777 245 245 245 0.939504 0.177447 -0.292993 1873 
-0.0197526 -8.08385 72.2797 196 196 196 0.373533 -0.0849551 -0.923718 1089 
0.529365 -14.2215 75.2193 239 239 239 0.999076 -0.0196302 -0.0382273 1777 
0.617272 -15.2757 77.2271 255 255 255 0.97361 0.208186 0.0934965 2033 
0.575158 -14.8241 76.5082 250 250 250 0.998711 0.0467658 -0.0197456 1953 
-0.931653 -5.55791 71.4993 246 246 246 0.986647 0.115168 -0.115168 1889 
-0.811813 -10.6133 71.5376 252 252 252 0.969444 0.0580431 -0.238347 1985 
0.0118874 -14.2551 71.7787 255 255 255 0.916423 0.332329 0.222992 2033 
0.578327 -12.7189 73.2948 255 255 255 0.998373 0.0199046 -0.0534282 2033 
-3.80783 -6.50714 71.0516 76 76 76 0.836799 0.340685 0.428604 -831 
0.202177 -14.9509 71.9261 248 248 248 0.971021 0.17527 -0.162477 1921 
0.189957 -14.0189 72.864 233 233 233 0.778622 -0.0734006 -0.623185 1681 
-4.28151 -3.60166 70.5551 206 206 206 -0.74092 -0.0558914 0.669264 1249 
-0.505763 -11.8424 70.8408 223 223 223 0.653101 0.308006 0.691803 1521 
-5.38193 -5.30226 71.841 219 219 219 -0.0125545 0.172339 0.984958 1457 
-0.551423 -12.2782 71.2815 255 255 255 0.941938 0.263412 0.208247 2033 
-1.00224 -8.59816 70.8897 250 250 250 0.997578 0.0586811 0.0373425 1953 
-0.915123 -7.74695 71.023 200 200 200 0.801126 0.374073 -0.46719 1153 
0.414322 -15.8056 72.5481 255 255 255 0.93648 0.329327 0.120618 2033 
-4.85559 -5.4546 71.8849 172 172 172 -0.0168816 0.145182 0.989261 705 
0.580437 -12.9622 73.3988 255 255 255 0.990325 -0.110036 -0.084554 2033 
0.00801742 -0.786362 68.693 211 211 211 0.996366 0.0843654 -0.0117471 1329 
-7.51256 -4.21312 71.6119 143 143 143 -0.00330095 0.130938 0.991385 241 
1.56037 -6.3974 71.3273 159 159 159 0.916446 -0.0409954 0.398052 497 
-0.568623 -10.0697 70.3948 215 215 215 0.389007 0.192334 0.900934 1393 
-14.4404 -5.27475 71.9507 215 215 215 0.959701 0.0726467 0.271469 1393 
-7.73849 -4.5419 71.663 156 156 156 -0.0102681 0.174557 0.984594 449 
-0.817153 -10.3793 70.775 253 253 253 0.953354 0.131268 0.271819 2001 
-1.09726 -2.87675 71.1219 232 232 232 0.993007 0.0413288 -0.110582 1665 
-0.00693262 -14.3964 72.008 255 255 255 0.916797 0.344693 0.201667 2033 
-1.01252 -8.32575 71.0289 248 248 248 0.996024 0.0402764 -0.0794642 1921 
0.148907 -14.5063 72.7786 248 248 248 0.931403 0.0841871 -0.35412 1921 
-2.07589 -15.8967 73.4105 224 224 224 0.169917 0.0807408 0.982145 1537 
0.516541 -11.1908 72.8339 254 254 254 0.996962 0.0246296 -0.0738887 2017 
0.525703 -11.0136 73.0631 250 250 250 0.997772 0.0179114 -0.0642704 1953 
-0.311643 -13.1713 72.171 252 252 252 0.933924 0.152674 -0.323228 1985 
-0.298403 -4.87639 69.503 239 239 239 0.854772 0.196104 0.480529 1777 
-0.503573 -15.7598 73.1464 219 219 219 0.147471 0.170159 0.974319 1457 
-0.553583 -11.8791 70.9278 255 255 255 0.825367 0.288645 0.485235 2033 
-0.695863 -8.25359 71.8257 227 227 227 0.779575 -0.0293915 -0.625619 1585 
1.13031 -10.8677 69.3108 240 240 240 0.980714 0.108697 0.162435 1793 
0.644668 -15.5055 77.2629 254 254 254 0.972562 0.232129 0.0154753 2017 
0.645016 -15.5117 77.2636 253 253 253 0.973223 0.229343 0.015448 2001 
-0.573663 -12.0703 71.14 255 255 255 0.926464 0.263281 0.268974 2033 
-0.157693 -13.7642 71.6704 254 254 254 0.883131 0.357781 0.303435 2017 
-1.03401 -7.86892 70.7369 246 246 246 0.994215 0.0613713 0.0881515 1889 
0.648 -15.5363 77.2677 252 252 252 0.975911 0.217785 0.0129494 1985 
-1.006 -8.51789 70.9626 249 249 249 0.998645 0.048943 -0.0177028 1937 
-1.71109 -16.4118 73.4449 225 225 225 0.127582 0.228101 0.965242 1553 
0.564693 -13.9916 75.4232 236 236 236 0.977002 -0.190965 -0.0948665 1729 
-4.79113 -4.51655 71.6954 166 166 166 -0.0105384 0.209597 0.977731 609 
-4.20295 -4.30334 71.0333 148 148 148 0.993063 0.102575 0.0574872 321 
0.444565 -13.738 71.2834 196 196 196 0.138675 0.379606 0.914696 1089 
-0.847323 -10.6441 71.2852 253 253 253 0.994369 0.0922152 -0.0522183 2001 
3.80207 -3.92208 68.6644 177 177 177 0.994199 0.077165 -0.0749284 785 
-3.77945 -4.45853 70.3633 244 244 244 0.271288 0.961386 -0.0462565 1857 
-0.678313 -11.0002 70.6853 255 255 255 0.788893 0.214591 0.575846 2033 
-1.29111 -15.2395 73.2668 220 220 220 0.256971 -0.170865 0.951195 1473 
-4.11341 -5.27909 71.7196 236 236 236 0.969707 0.190867 0.152437 1729 
-0.633963 -6.13561 71.898 208 208 208 0.570091 0.1739 -0.802966 1281 
-0.390433 -12.5539 71.0864 255 255 255 0.758694 0.341331 0.554866 2033 
0.519937 -14.4206 74.42 255 255 255 0.997278 0.0728171 -0.0116085 2033 
-2.99183 -16.577 73.6568 224 224 224 0.134176 0.203181 0.969904 1537 
-0.579433 -8.25334 71.9537 219 219 219 0.705088 -0.041142 -0.707925 1457 
0.525309 -13.0704 73.1117 248 248 248 0.968446 -0.224659 -0.107887 1921 
-0.567233 -10.6248 72.0478 234 234 234 0.804402 -0.00136571 -0.594083 1697 
-4.40103 -1.26802 70.554 193 193 193 0.999274 0.0236697 0.0298444 1041 
-0.818972 -8.61207 71.6499 239 239 239 0.877023 -0.00399252 -0.480433 1777 
0.0665274 -10.8569 69.5801 239 239 239 0.984673 0.149555 -0.0897333 1777 
-0.266633 -12.8876 71.1414 231 231 231 0.623866 0.373661 0.686417 1649 
0.543248 -11.9698 72.9693 255 255 255 0.998426 0.0177359 -0.0532077 2033 
-0.743152 -6.42844 71.6869 233 233 233 0.805344 0.0972217 -0.584781 1681 
0.563775 -14.8557 74.4547 255 255 255 0.993508 0.11376 -0.00108343 2033 
0.263727 -15.3258 72.3916 255 255 255 0.932276 0.3354 0.135529 2033 
0.487275 -10.0909 72.7267 251 251 251 0.996558 0.0117242 -0.0820694 1969 
0.272557 -15.3673 72.4334 252 252 252 0.939854 0.326616 0.0999845 1985 
0.578279 -14.9773 75.3051 255 255 255 0.993261 0.115898 -0.00108316 2033 
-0.315133 -12.1782 72.3319 238 238 238 0.782031 0.0293786 -0.622547 1761 
0.710954 -15.911 76.6387 253 253 253 0.977834 0.209119 0.0105143 2001 
-0.903193 -7.783 71.0715 216 216 216 0.788052 0.432053 -0.438526 1409 
0.718753 -15.9342 76.5564 255 255 255 0.975911 0.217785 0.0129494 2033 
0.686751 -16.9538 72.6926 245 245 245 0.849406 0.0400533 -0.526218 1873 
-0.976143 -16.7577 73.4185 219 219 219 0.131015 0.202247 0.970531 1457 
-3.51464 -16.0737 73.7272 218 218 218 0.274366 -0.128568 0.952992 1441 
0.52857 -14.5661 73.4662 255 255 255 0.994569 0.10407 -0.00107289 2033 
-0.532203 -11.4218 72.0745 243 243 243 0.849775 0.0429739 -0.525391 1841 
-2.8239 -16.1226 73.5591 230 230 230 0.176637 0.0708953 0.981719 1633 
-0.296813 -12.4261 72.34 240 240 240 0.799303 0.0465203 -0.599125 1793 
-0.931083 -9.36136 71.3165 248 248 248 0.979441 0.0441405 -0.196843 1921 
-0.965363 3.64305 68.7512 127 127 127 0.429239 0.0667704 0.90072 -15 
-4.09139 -2.51206 70.1387 162 162 162 0.35629 0.244858 0.901722 545 
-6.95111 -4.29975 71.6268 152 152 152 -0.00563732 0.163482 0.98653 385 
-0.320363 -12.9097 72.2379 241 241 241 0.895836 0.104817 -0.431846 1809 
-0.587783 -17.0446 73.4232 213 213 213 0.158869 0.171578 0.972277 1361 
-0.900683 -9.52603 70.6748 248 248 248 0.959404 0.102285 0.262833 1921 
0.0469074 -14.9761 72.9758 218 218 218 0.341822 0.011352 0.939696 1441 
0.729051 -16.9097 72.7571 246 246 246 0.913459 0.117821 -0.389502 1889 
-4.4241 -3.21208 71.0826 193 193 193 0.774999 0.0675788 -0.628339 1041 
0.757345 -16.8662 72.864 255 255 255 0.960268 0.255294 -0.112744 2033 
-3.23793 -16.6728 73.7105 228 228 228 0.132366 0.214613 0.967688 1601 
0.620715 -14.251 71.4715 249 249 249 0.18373 0.326788 0.927067 1937 
-4.44042 -1.17683 70.9123 195 195 195 0.963772 0.0537512 0.261256 1073 
-0.345623 -3.99078 69.3177 233 233 233 0.985825 0.0745582 0.1503 1681 
-0.892833 -7.91378 70.2381 244 244 244 0.830783 0.099694 0.547595 1857 
-1.10187 -2.90263 71.4902 225 225 225 0.997319 0.0484136 0.0548687 1553 
-2.40602 -15.648 73.5018 219 219 219 0.252738 -0.16448 0.953451 1457 
-0.783823 -11.0694 71.4535 255 255 255 0.985249 0.116123 -0.1257 2033 
-0.892163 -10.0724 70.985 252 252 252 0.9913 0.0907447 0.0953394 1985 
0.133127 -14.3563 72.7697 248 248 248 0.907504 0.0635658 -0.415207 1921 
-3.54077 -17.2281 73.8708 225 225 225 0.160884 0.186626 0.969168 1553 
0.597091 -12.4496 73.8171 252 252 252 0.998439 0.0220013 -0.0513363 1985 
-0.162303 -9.74004 72.3572 195 195 195 0.480842 -0.0651285 -0.874385 1073 
1.29174 -15.6436 72.066 251 251 251 0.754189 0.12993 0.643674 1969 
-3.27559 -5.73048 71.9277 207 207 207 -0.0655739 0.078911 -0.994723 1265 
0.195197 -15.0981 72.3029 255 255 255 0.930106 0.337594 0.144683 2033 
0.128977 -14.6303 71.8068 248 248 248 0.972654 0.232258 -0.00117897 1921 
-1.56704 -17.0119 73.5527 221 221 221 0.134176 0.203181 0.969904 1489 
-2.2323 -16.0565 73.4545 228 228 228 0.158924 0.124429 0.979418 1601 
-0.782652 -16.0221 73.2355 220 220 220 0.135881 0.194297 0.971486 1473 
-1.90307 -15.9376 73.3876 223 223 223 0.153052 0.121217 0.980756 1521 
-0.484873 -11.6511 72.1295 244 244 244 0.84151 0.0459005 -0.538288 1857 
-3.55756 -16.1582 73.7079 235 235 235 0.287137 -0.062532 0.955846 1713 
-0.701613 -11.6364 71.2737 251 251 251 0.978295 0.189308 0.0842726 1969 
0.217317 -14.379 72.9515 245 245 245 0.888651 -0.0364091 -0.457136 1873 
-0.694043 -11.07 70.7553 252 252 252 0.871866 0.206455 0.444102 1985 
0.456994 -13.4342 72.9219 255 255 255 0.936458 -0.0698063 -0.343763 2033 
-1.17503 -15.4337 73.2215 215 215 215 0.197002 0.00115206 0.980402 1393 
0.683978 -15.7772 76.7068 252 252 252 0.993261 0.115898 0.00108316 1985 
0.693756 -16.8032 73.1972 239 239 239 0.736517 0.335075 0.587595 1777 
-0.860573 -10.505 71.2356 255 255 255 0.996481 0.0768188 -0.0335406 2033 
-2.04807 -4.55735 68.778 204 204 204 -0.922481 0.090758 -0.375223 1217 
-1.00653 -4.45548 69.8035 207 207 207 0.690808 0.110943 0.714476 1265 
-1.00808 -1.27082 69.3649 185 185 185 0.469569 0.118463 0.874912 913 
-3.69919 -4.59049 68.7761 204 204 204 -0.923813 -0.011596 -0.382667 1217 
-10.8613 -4.43067 71.5554 55 55 55 -0.0336743 0.08147 0.996107 -1167 
-4.36013 -0.566022 70.3721 175 175 175 0.982204 -0.100521 0.158654 753 
-10.2458 -5.56426 71.7595 213 213 213 -0.0558623 0.0242421 0.998144 1361 
0.132777 -16.8831 73.3057 215 215 215 0.0991188 0.139722 0.985217 1393 
-2.81899 -4.58797 69.6669 226 226 226 0.177688 0.962146 -0.206644 1569 
0.441675 -15.91 72.7542 255 255 255 0.956697 0.286883 -0.0492882 2033 
-8.8215 -5.11631 71.7541 165 165 165 0.032617 0.230735 0.97247 593 
-0.834703 -16.071 73.2533 222 222 222 0.136217 0.194778 0.971343 1505 
-0.738603 -11.1624 71.6343 254 254 254 0.964931 0.0981502 -0.243463 2017 
-0.816893 -10.2181 70.7002 250 250 250 0.948136 0.129717 0.290191 1953 
0.583689 -15.0238 74.9498 255 255 255 0.992394 0.123096 0.00108935 2033 
-3.59661 -17.1322 73.8722 242 242 242 0.187494 0.190116 0.963692 1825 
-2.07335 -16.4581 73.5042 229 229 229 0.129944 0.222577 0.966216 1617 
0.468651 -13.306 72.9898 252 252 252 0.984742 -0.109149 -0.135537 1985 
0.674869 -15.6961 76.4662 255 255 255 0.994569 0.10407 -0.00107289 2033 
-0.862963 -8.95927 71.5633 244 244 244 0.915765 0.00387489 -0.401697 1857 
-0.735242 -11.4463 71.2675 255 255 255 0.983188 0.173921 0.0556075 2033 
-0.805303 -10.5703 71.5683 252 252 252 0.963045 0.0460966 -0.265367 1985 
-0.528573 -9.45711 72.0669 226 226 226 0.719338 -0.0325045 -0.6939 1569 
2.58589 -4.45667 69.224 223 223 223 0.8029 0.566128 -0.186686 1521 
0.0804274 -14.6779 71.7176 251 251 251 0.956021 0.108253 -0.27259 1969 
0.471311 -15.9762 73.0212 255 255 255 0.834588 0.327259 0.44313 2033 
-2.5955 -15.9241 73.5081 219 219 219 0.203762 -0.0223785 0.978765 1457 
-0.780843 -7.98521 71.6968 231 231 231 0.829962 -0.0206458 -0.557437 1649 
-1.11675 -6.37669 70.6828 244 244 244 0.998611 0.0509178 0.0135088 1857 
-0.283053 -12.6462 72.3406 240 240 240 0.823852 0.0579381 -0.563837 1793 
0.514436 -13.7336 74.2735 251 251 251 0.991941 -0.110216 -0.0624934 1969 
-1.12217 -6.24116 70.6071 243 243 243 0.996691 0.0574805 0.0574805 1841 
0.599932 -16.4106 72.832 255 255 255 0.952907 0.302688 0.0186844 2033 
-4.02933 -4.3679 70.5375 44 44 44 0.550678 0.159682 0.819302 -1343 
-2.74919 -16.701 73.648 227 227 227 0.129518 0.214153 0.968176 1585 
-12.2456 -5.58852 71.6571 187 187 187 -0.0516963 0.0802943 0.99543 945 
0.536891 -14.412 75.3908 254 254 254 0.999448 0.0234804 -0.0234804 2017 
-0.502823 -12.2378 71.0829 255 255 255 0.876116 0.299125 0.378081 2033 
-2.14739 -3.84858 69.3051 217 217 217 0.600379 0.783953 0.157994 1425 
-0.736103 -10.3887 71.7643 247 247 247 0.907745 0.019705 -0.41906 1905 
-2.50109 -16.9012 73.659 229 229 229 0.135881 0.194297 0.971486 1617 
-3.18263 -16.3383 73.6438 229 229 229 0.156191 0.121756 0.980194 1617 
0.532914 -14.0712 75.1292 234 234 234 0.995468 -0.0782704 -0.0540176 1697 
-3.74968 -4.10863 69.8187 229 229 229 0.51771 0.707482 -0.481088 1617 
0.341687 -10.8117 69.8712 222 222 222 -0.0725546 0.994557 -0.0747871 1505 
0.415694 -15.789 72.8093 255 255 255 0.960108 0.274854 -0.0514568 2033 
-0.340313 -10.7814 70.4796 204 204 204 0.274272 0.234889 0.932525 1217 
-2.05868 -4.77421 68.7002 225 225 225 -0.347967 0.811923 -0.468722 1553 
0.00252736 -13.9964 72.46 191 191 191 0.909861 0.109405 -0.400228 1009 
0.617612 -15.2926 76.6172 252 252 252 0.992658 0.12095 -0.00108964 1985 
-0.821003 -10.8688 71.2085 255 255 255 0.991045 0.13102 0.025756 2033 
0.562852 -14.7286 76.1155 250 250 250 0.9986 0.049043 -0.0198259 1953 
-0.379863 -12.5001 72.205 247 247 247 0.874843 0.0825852 -0.477314 1905 
-2.20039 -15.994 73.4414 222 222 222 0.164855 0.10624 0.980579 1505 
0.727471 -15.9613 76.3475 254 254 254 0.974464 0.224515 0.00352641 2017 
-4.41877 -1.64933 71.0099 204 204 204 0.972627 0.117321 0.200581 1217 
-0.612882 -10.3539 71.9861 242 242 242 0.822468 -0.0068198 -0.568771 1825 
-3.51956 -4.74349 68.5064 158 158 158 0.592903 0.582768 0.555741 481 
0.606215 -13.0304 73.7865 253 253 253 0.995443 -0.0651844 -0.0696037 2001 
0.160577 -14.9468 72.5518 255 255 255 0.962858 0.228011 -0.144624 2033 
-0.306083 -15.9582 73.1569 221 221 221 0.138715 0.19471 0.971003 1489 
0.527688 -11.6196 72.8455 255 255 255 0.995637 0.024918 -0.0899215 2033 
-0.609722 -11.4852 71.9199 248 248 248 0.910044 0.0718813 -0.408231 1921 
-0.0788525 -12.7316 71.0099 221 221 221 0.280159 0.342417 0.896806 1489 
-8.58096 -4.98624 71.7405 169 169 169 -0.00364657 0.283217 0.959049 657 
-0.690693 -10.185 71.8625 245 245 245 0.864933 0.0121064 -0.501742 1873 
-3.69288 -6.58454 70.9759 67 67 67 0.621145 0.365476 0.693257 -975 
-0.451613 -12.3162 71.0278 254 254 254 0.782318 0.327966 0.529544 2017 
0.505472 -10.7468 70.2701 231 231 231 -0.056243 0.882055 0.467777 1649 
-3.22366 0.200628 69.2714 242 242 242 0.106771 0.993961 -0.0253168 1825 
-4.11491 -5.22337 71.5014 232 232 232 0.986956 0.155835 0.0404017 1665 
-0.573133 -9.97075 72.0292 233 233 233 0.783925 -0.00967809 -0.62078 1681 
0.351177 -16.2457 73.1347 221 221 221 0.202827 0.21626 0.955035 1489 
-1.15369 -3.78258 69.9145 232 232 232 0.934156 0.0868671 0.346132 1665 
-0.641363 -11.9431 71.6023 255 255 255 0.980433 0.167272 -0.103782 2033 
0.612682 -14.616 77.1836 233 233 233 0.983475 -0.15971 -0.0852586 1681 
-0.850973 -16.0001 73.241 222 222 222 0.135678 0.188935 0.972571 1505 
0.403976 -16.0684 72.2619 248 248 248 0.866335 0.00401701 -0.499448 1921 
0.534686 -14.5976 74.1072 255 255 255 0.994569 0.10407 -0.00107289 2033 
-8.9309 -4.18885 71.6114 110 110 110 -0.00528546 0.0792819 0.996838 -287 
-0.676333 -15.4983 73.1363 216 216 216 0.16763 0.106451 0.980086 1409 
-3.81714 -6.59179 71.4892 79 79 79 0.936573 0.331112 -0.114875 -783 
0.641202 -16.8653 73.2247 210 210 210 0.516828 0.313277 0.79671 1313 
-4.39245 -0.850062 70.6313 185 185 185 0.997753 -0.0243354 0.0624257 913 
0.601647 -14.6746 77.1783 233 233 233 0.989783 -0.123868 -0.0706161 1681 
-2.51851 -16.6133 73.5985 228 228 228 0.129944 0.222577 0.966216 1601 
-1.33454 -1.92696 70.0991 226 226 226 0.994143 0.0818178 0.0706099 1569 
-1.02724 -7.72972 70.6133 245 245 245 0.983736 0.0701819 0.165344 1873 
-0.261253 -13.5845 72.0124 255 255 255 0.966993 0.24457 -0.0714897 2033 
-2.46756 -16.058 73.492 226 226 226 0.161091 0.0956855 0.98229 1569 
0.125417 -13.6867 71.3389 225 225 225 0.311671 0.394579 0.864389 1553 
-3.7822 -6.36396 70.9335 66 66 66 0.654786 0.341272 0.67438 -991 
0.548635 -14.5309 75.7915 251 251 251 0.999448 0.0234804 -0.0234804 1969 
0.689359 -17.0868 72.6916 246 246 246 0.821932 0.0123496 -0.569452 1889 
0.0337374 -14.2159 71.7006 255 255 255 0.902202 0.326328 0.28203 2033 
-12.9129 -5.40149 71.5996 151 151 151 -0.0571415 0.0952358 0.993813 369 
-0.254443 -13.4845 72.1722 100 100 100 0.950504 0.187938 -0.247429 -447 
0.56265 -12.3789 73.2058 253 253 253 0.998373 0.0199046 -0.0534282 2001 
-3.32682 -16.2539 73.6586 234 234 234 0.183185 0.0437279 0.982106 1697 
-3.34921 -17.2394 73.8466 227 227 227 0.136486 0.197714 0.970711 1585 
-13.0019 -5.04478 71.5423 166 166 166 -0.0503812 0.16286 0.985362 609 
0.0460575 -14.4232 71.6639 252 252 252 0.96415 0.246465 0.0983306 1985 
-0.883942 -8.57734 70.3621 246 246 246 0.884838 0.0967573 0.455741 1889 
0.693919 -15.8415 76.9352 253 253 253 0.987362 0.158382 0.00561639 2001 
0.559251 -14.6022 76.1244 249 249 249 0.999447 0.0152821 -0.0295453 1937 
-1.06999 -4.68672 71.127 229 229 229 0.937459 0.0113861 -0.34791 1617 
-3.74236 -4.47637 70.383 244 244 244 0.197282 0.979237 -0.0466303 1857 
-4.24138 -4.23072 71.5484 228 228 228 0.943573 0.14756 0.296474 1601 
-0.614972 -11.7851 71.8349 255 255 255 0.946577 0.107535 -0.30402 2033 
-1.01843 -7.93381 70.6461 244 244 244 0.985315 0.067261 0.156942 1857 
-0.160583 -11.9094 72.4849 221 221 221 0.627779 -0.0208796 -0.778112 1489 
-0.445373 -11.4168 72.1974 236 236 236 0.788925 0.0180247 -0.614225 1729 
-3.90041 -5.96897 71.8245 232 232 232 0.731869 0.282224 -0.620255 1665 
-0.0821726 -10.54 70.3569 181 181 181 0.292033 0.109678 0.950099 849 
-9.2805 -5.29141 71.7601 162 162 162 -0.0558839 0.069033 0.996048 545 
-3.87049 -4.19201 70.4519 98 98 98 0.449492 0.0848885 0.889242 -479 
1.26416 -16.1706 72.2022 250 250 250 0.759741 0.126376 0.637826 1953 
-1.01134 -4.68271 71.602 236 236 236 0.996288 0.0707746 0.0489978 1729 
-1.1129 -16.3867 73.357 218 218 218 0.129944 0.222577 0.966216 1441 
0.694435 -15.1562 71.2957 236 236 236 0.98674 0.156533 -0.0429018 1729 
-1.3648 -0.704382 69.7574 220 220 220 0.974021 0.0753046 0.213569 1473 
-6.89459 -3.93134 71.5819 115 115 115 0.00317077 0.081383 0.996678 -207 
-0.996243 -6.45838 70.141 241 241 241 0.894351 0.0904088 0.438135 1809 
0.567839 -14.6041 76.4312 240 240 240 0.999076 -0.0196302 -0.0382273 1793 
0.610696 -16.3968 73.0327 255 255 255 0.930833 0.309345 0.194565 2033 
-0.977103 -8.38708 70.5925 248 248 248 0.971513 0.0756862 0.224577 1921 
0.0603774 -14.8618 72.9756 219 219 219 0.444459 -0.0701777 0.893046 1457 
-0.855842 -10.3903 71.3578 254 254 254 0.989017 0.0637701 -0.133338 2017 
-0.647723 -11.5427 70.9248 255 255 255 0.912319 0.232779 0.336879 2033 
-0.976763 -5.52834 71.3217 227 227 227 0.937992 0.0320791 -0.345171 1585 
0.492254 -16.0016 72.9543 255 255 255 0.935166 0.310801 0.169905 2033 
0.552315 -14.7532 74.0357 255 255 255 0.993197 0.116399 0.00326352 2033 
0.535934 -14.5395 75.002 255 255 255 0.997701 0.0663729 -0.013696 2033 
-5.09147 -4.04693 71.598 158 158 158 -0.00340618 0.175986 0.984387 481 
-1.04632 -7.17511 70.5031 244 244 244 0.976301 0.0720923 0.204058 1857 
4.17208 -4.2828 69.2778 217 217 217 0.0438753 -0.638314 0.768525 1425 
-3.14872 -16.6289 73.6895 228 228 228 0.131853 0.208661 0.969059 1601 
-3.27621 -15.9751 73.6854 204 204 204 0.242387 -0.137571 0.960376 1217 
-10.3663 -4.95663 71.6552 209 209 209 -0.0354054 0.247838 0.968154 1297 
-1.01974 -4.74063 71.2322 229 229 229 0.96872 0.0205084 -0.247307 1617 
-0.732203 -11.4497 71.231 248 248 248 0.980349 0.178577 0.0838217 1921 
-0.0446326 -6.45142 69.6887 144 144 144 0.157921 0.116298 0.980579 257 
0.123347 -11.4527 70.5549 191 191 191 0.139019 0.263474 0.954597 1009 
0.172407 -14.5617 72.8312 248 248 248 0.959333 0.0360839 -0.279961 1921 
-0.131243 -13.7421 71.5828 255 255 255 0.857934 0.360178 0.366361 2033 
-0.584903 -12.0585 71.1683 255 255 255 0.935541 0.256678 0.242652 2033 
-0.00852263 -14.4253 72.0695 255 255 255 0.933394 0.328544 0.144339 2033 
-0.388803 -9.83123 70.2753 202 202 202 0.326981 0.196755 0.924322 1185 
0.525363 -14.262 75.0225 247 247 247 0.999505 0.011162 -0.029427 1905 
0.667876 -16.6218 72.9973 255 255 255 0.949658 0.304461 0.0738479 2033 
0.601322 -15.0856 77.196 252 252 252 0.985424 0.0552025 0.16091 1985 
0.542557 -14.6755 73.7473 255 255 255 0.994404 0.105188 -0.0097597 2033 
0.784282 -16.2252 76.7688 254 254 254 0.973381 0.228822 0.0130416 2017 
-0.934073 -5.51155 71.6108 244 244 244 0.988091 0.146427 -0.0472716 1857 
-3.51338 -16.1451 73.6992 222 222 222 0.260613 -0.066727 0.963135 1505 
-4.11643 -5.1933 71.3603 53 53 53 0.987562 0.151311 0.0427366 -1199 
0.198217 -15.1267 72.4858 255 255 255 0.959564 0.277207 -0.0489189 2033 
-4.01385 -5.79106 71.472 64 64 64 0.980411 0.196547 0.012793 -1023 
-0.217363 -5.92762 69.6602 160 160 160 0.229121 0.11648 0.966404 513 
-9.9738 -5.485 71.7523 164 164 164 -0.0422026 0.0703376 0.99663 577 
-0.487573 -16.6913 73.3365 215 215 215 0.133913 0.200232 0.970554 1393 
0.606438 -15.1531 77.2033 255 255 255 0.977833 0.104812 0.181263 2033 
-7.54397 -4.73344 71.699 159 159 159 -0.0150634 0.191189 0.981438 497 
-0.648043 -9.5429 71.9319 233 233 233 0.796525 -0.00411287 -0.604591 1681 
-3.19263 -16.8013 73.7455 225 225 225 0.13211 0.211633 0.968379 1553 
-0.367163 -9.39269 72.2049 203 203 203 0.595411 -0.0494997 -0.801895 1201 
-0.234753 -12.0846 70.8254 218 218 218 0.282552 0.305976 0.909144 1441 
0.455078 -15.9313 72.8146 255 255 255 0.95816 0.281515 -0.0517583 2033 
-1.09973 -2.86224 71.2309 233 233 233 0.998629 0.0523433 -0.00102634 1681 
0.548244 -12.3297 72.9333 252 252 252 0.997196 0.0158958 -0.0731207 1985 
0.542161 -14.6711 74.2432 255 255 255 0.994321 0.106419 -0.00107494 2033 
0.554827 -14.6836 75.7549 253 253 253 0.998131 0.0595743 -0.0135871 2001 
-0.647143 -10.6106 71.9364 246 246 246 0.855516 0.0121637 -0.517634 1889 
-1.21624 -3.20838 70.772 225 225 225 0.964095 0.0282474 -0.264051 1553 
-0.747433 -10.9029 71.6827 251 251 251 0.948387 0.0741537 -0.308323 1969 
0.0565774 -14.1935 72.6432 249 249 249 0.893327 0.0961616 -0.438998 1937 
0.505743 -14.0609 74.4409 253 253 253 0.999558 0.00505337 -0.0293096 2001 
-4.06959 -4.40226 68.7592 242 242 242 0.997999 0.063217 -0.00103634 1825 
-0.659173 -11.5984 71.7565 254 254 254 0.95511 0.108446 -0.275688 2017 
-1.35959 -15.7416 73.2757 224 224 224 0.159672 0.10848 0.981192 1537 
-0.159973 -8.58803 72.2677 185 185 185 0.444371 -0.0729154 -0.89287 913 
0.452095 -15.9934 72.3452 248 248 248 0.921509 0.0684089 -0.382285 1921 
-3.7962 -6.66637 71.284 62 62 62 0.946584 0.318104 0.0528027 -1055 
-2.94105 -16.8506 73.7077 226 226 226 0.133583 0.199738 0.970701 1569 
0.591051 -12.9288 73.5101 252 252 252 0.995877 -0.0559975 -0.0713693 1985 
0.513462 -14.0564 74.6963 241 241 241 0.998944 -0.0217838 -0.0404557 1809 
-11.0413 -5.58512 71.7121 197 197 197 -0.0610671 0.0374973 0.997429 1105 
-1.08305 -15.5796 73.2133 219 219 219 0.167905 0.0857646 0.982065 1457 
0.175857 -14.9981 71.8804 249 249 249 0.948669 0.101596 -0.29951 1937 
-0.727543 -11.4494 71.5159 255 255 255 0.983712 0.136392 -0.11708 2033 
0.577347 -13.0022 73.4196 251 251 251 0.985808 -0.139131 -0.0939431 1969 
0.562574 -14.5825 76.2675 247 247 247 0.999341 -0.00711637 -0.0355818 1905 
-3.70036 -6.95151 71.4134 88 88 88 0.859795 0.495647 -0.122828 -639 
0.500192 -16.2584 72.4264 248 248 248 0.892577 0.0335555 -0.449644 1921 
-0.0529026 -13.301 72.5809 233 233 233 0.738352 0.0410983 -0.673162 1681 
0.544719 -14.4944 75.6517 252 252 252 0.999444 0.0255221 -0.0214385 1985 
0.592661 -12.7745 73.5618 255 255 255 0.998606 0.0197847 -0.048941 2033 
-0.693563 -7.22294 71.7777 220 220 220 0.742413 -0.0324013 -0.669158 1473 
0.595747 -16.517 72.584 246 246 246 0.910076 0.0950003 -0.403407 1889 
-0.717193 -10.9982 70.7782 255 255 255 0.907521 0.188408 0.375377 2033 
-2.57487 -17.1736 73.7268 227 227 227 0.13134 0.202748 0.970383 1585 
0.344957 -16.7803 73.2419 210 210 210 0.12049 0.172661 0.977584 1313 
-0.335593 -8.36544 69.9902 197 197 197 0.328241 0.129389 0.93569 1105 
-5.59629 -4.9026 71.7607 160 160 160 -0.0128862 0.207351 0.978182 513 
-3.0967 -16.579 73.6718 225 225 225 0.136217 0.194778 0.971343 1553 
-3.51123 -4.85107 68.8554 160 160 160 0.244729 0.962084 -0.120422 513 
-0.995123 -4.89648 71.7223 236 236 236 0.96537 0.114101 0.234612 1729 
-2.73094 -15.9264 73.5355 216 216 216 0.214 -0.0471525 0.975695 1409 
-12.858 -5.37855 71.5988 154 154 154 -0.0525443 0.0972629 0.993871 417 
-0.821993 -9.01524 71.6481 243 243 243 0.893111 -0.00131147 -0.449834 1841 
-1.07686 -7.13413 70.8334 245 245 245 0.998304 0.0495462 -0.0305711 1873 
-2.56208 -16.5519 73.5917 230 230 230 0.129695 0.219583 0.966935 1633 
-1.22681 -4.1156 70.483 236 236 236 0.998854 0.0464824 -0.0113624 1729 
-1.61207 -16.9855 73.5538 220 220 220 0.137024 0.203616 0.969415 1473 
-0.900713 -9.54305 70.6833 249 249 249 0.961097 0.101915 0.256722 1937 
-3.68953 -4.49848 69.6077 221 221 221 0.773001 0.634221 -0.0152657 1489 
0.372457 -15.6052 72.3915 255 255 255 0.940534 0.318893 0.117062 2033 
-0.601133 -10.0594 70.4061 221 221 221 0.430282 0.189442 0.882592 1489 
-0.846093 -10.6413 71.2979 252 252 252 0.994189 0.0883475 -0.0615077 1985 
0.644934 -15.5066 77.2545 253 253 253 0.973058 0.229866 0.0178652 2001 
-0.778853 -10.62 70.762 252 252 252 0.94072 0.145669 0.306312 1985 
-0.498233 -11.7541 70.8069 226 226 226 0.594965 0.299888 0.745711 1569 
0.606739 -12.8088 73.9295 254 254 254 0.999198 0.0174937 -0.0360164 2017 
-1.75577 -17.0028 73.5774 218 218 218 0.134176 0.203181 0.969904 1441 
0.336297 -13.2629 71.1119 199 199 199 0.151969 0.349947 0.924361 1137 
0.261867 -13.9024 72.9045 224 224 224 0.580154 -0.167265 -0.797147 1537 
0.524612 -16.0751 72.47 248 248 248 0.964248 0.176626 -0.19756 1921 
-0.412663 -13.0008 71.6911 253 253 253 0.966 0.251185 0.0612342 2001 
0.471629 -13.8204 73.3391 255 255 255 0.999486 0.0193976 -0.0255231 2033 
-4.43493 -4.32218 71.6643 145 145 145 0.0520295 0.209328 0.97646 273 
-6.10885 -5.00587 71.7729 173 173 173 -0.0157194 0.257556 0.966136 721 
0.315097 -15.5688 72.9913 228 228 228 0.685816 0.268916 0.676269 1601 
-0.952023 -8.1485 70.4392 246 246 246 0.947171 0.0768681 0.311381 1889 
-3.37401 -16.1016 73.6697 219 219 219 0.219753 -0.0626113 0.973544 1457 
-0.943403 -5.4909 71.4535 245 245 245 0.984327 0.0997548 -0.145426 1873 
-1.04786 -5.94856 71.1684 236 236 236 0.938428 0.00125626 -0.345472 1729 
-0.516343 -12.5668 71.6325 255 255 255 0.974705 0.223492 0.00117011 2033 
-0.292813 -13.4185 71.7054 255 255 255 0.937079 0.306856 0.1665 2033 
0.391297 -15.9181 73.0458 229 229 229 0.615769 0.30065 0.728312 1617 
0.0401775 -10.7192 69.3986 239 239 239 0.988406 0.116352 -0.0975478 1777 
-0.670102 -11.7556 71.2192 255 255 255 0.966344 0.213449 0.143593 2033 
-0.671453 -11.81 71.3456 249 249 249 0.977964 0.199461 0.0616516 1937 
0.399455 -15.7463 72.7768 255 255 255 0.95913 0.27203 -0.0779054 2033 
-1.00695 -5.68115 69.9994 238 238 238 0.827245 0.0996159 0.55294 1761 
-3.48405 -16.4433 73.705 232 232 232 0.195551 0.1249 0.972708 1665 
-0.274713 -11.4669 72.3781 223 223 223 0.669912 -0.0125347 -0.742335 1521 
-0.674743 -11.4468 70.9384 255 255 255 0.929913 0.215898 0.297741 2033 
-0.787912 -10.9918 71.4796 254 254 254 0.982118 0.108045 -0.154177 2017 
-2.80126 -16.378 73.5905 228 228 228 0.14471 0.16736 0.975218 1601 
-0.791883 -10.9647 71.4775 253 253 253 0.982002 0.105605 -0.156586 2001 
-0.473733 -6.80642 71.9459 194 194 194 0.582579 -0.0521923 -0.811097 1057 
-0.0780625 -14.0624 72.3834 255 255 255 0.933571 0.153067 -0.324061 2033 
-0.665443 -11.0794 71.8616 247 247 247 0.908747 0.0578906 -0.413312 1905 
-0.990313 -7.66822 71.255 228 228 228 0.919979 0.385451 -0.0711808 1601 
-1.58699 -16.7229 73.4958 221 221 221 0.140438 0.183455 0.972945 1489 
-1.18128 -2.24416 69.6263 223 223 223 0.817298 0.0940254 0.568492 1521 
0.450263 -15.9378 72.6305 254 254 254 0.941119 0.326943 0.0860376 2017 
-1.10313 -2.33234 69.5661 196 196 196 0.683749 0.104851 0.722145 1089 
0.230507 -15.0734 72.7959 255 255 255 0.976724 0.213769 -0.0177157 2033 
-0.925192 -9.58665 71.289 249 249 249 0.984356 0.0676819 -0.162674 1937 
0.555296 -12.1677 73.1227 253 253 253 0.998439 0.0220013 -0.0513363 2001 
-6.30522 -4.7179 71.7137 169 169 169 -0.0128104 0.201472 0.97941 657 
-4.425 -1.70603 71.4706 211 211 211 0.988358 0.0590929 -0.140201 1329 
-2.86301 -5.31205 71.8556 150 150 150 -0.363366 0.209912 -0.90769 353 
-0.607203 -7.46781 69.9873 208 208 208 0.432282 0.116871 0.894133 1281 
0.554259 -14.6125 75.92 251 251 251 0.999186 0.034028 -0.0216542 1969 
0.129787 -14.6939 72.6498 255 255 255 0.950727 0.165402 -0.262223 2033 
-4.35007 -2.49618 71.5386 213 213 213 0.997701 0.0677644 0.00104253 1361 
0.0594875 -14.6795 72.2399 255 255 255 0.951341 0.305291 0.0418033 2033 
0.544041 -14.6835 74.6585 255 255 255 0.995232 0.0974877 -0.00321388 2033 
-4.34348 -1.71356 70.3582 193 193 193 0.927347 0.0733872 0.366936 1041 
0.562464 -14.846 74.3437 255 255 255 0.993508 0.11376 -0.00108343 2033 
-0.995863 -3.33517 69.6407 204 204 204 0.565406 0.115419 0.816697 1217 
-2.5782 -5.66794 71.9179 164 164 164 0.0228817 -0.099154 -0.994809 577 
0.561946 -12.4418 73.166 255 255 255 0.998322 0.022045 -0.0535378 2033 
-1.23069 -1.25452 70.4291 190 190 190 -0.365926 0.930643 -0.00126618 993 
-0.773512 -11.1097 71.4886 255 255 255 0.982752 0.112695 -0.146625 2033 
0.531539 -14.5792 73.6911 255 255 255 0.994675 0.1026 -0.00971995 2033 
0.48476 -9.78078 72.6791 250 250 250 0.993261 -0.00108316 -0.115898 1953 
-0.0146626 -11.5215 70.598 191 191 191 0.186946 0.266091 0.945646 1009 
-4.19 -4.46538 71.1934 43 43 43 0.992248 0.109998 0.0578339 -1359 
0.698634 -15.885 77.3269 253 253 253 0.988071 0.152794 0.0192408 2001 
0.352057 -16.1504 72.1684 245 245 245 0.866335 0.00401701 -0.499448 1873 
-0.204003 -16.5081 73.2587 215 215 215 0.140157 0.180563 0.973526 1393 
0.421087 -15.7749 72.8643 255 255 255 0.959044 0.280605 0.0386611 2033 
0.781342 -16.2205 76.95 255 255 255 0.972751 0.231607 0.0106896 2033 
-0.0251226 -9.29951 72.3838 200 200 200 0.402617 -0.0745587 -0.912327 1153 
2.56697 -4.47 69.0876 225 225 225 0.86392 0.475377 -0.166308 1553 
-0.614523 -10.9991 71.9684 244 244 244 0.865709 0.036926 -0.499184 1857 
-0.995653 -8.7332 70.9641 252 252 252 0.998711 0.0505024 -0.00515331 1985 
-0.665423 -8.9149 70.2203 221 221 221 0.484727 0.141197 0.863193 1489 
0.152927 -12.0335 72.6764 220 220 220 0.409704 -0.0635514 -0.910002 1473 
0.589796 -14.6095 76.8798 238 238 238 0.991821 -0.108427 -0.0673388 1761 
-0.601743 -9.47715 70.2892 217 217 217 0.421311 0.172289 0.890401 1425 
0.430585 -16.0182 72.3083 248 248 248 0.88892 0.0281558 -0.457197 1921 
0.505309 -13.2745 73.3694 250 250 250 0.977116 -0.189 -0.0975881 1953 
-0.625083 -11.8461 71.1029 255 255 255 0.937895 0.241093 0.249455 2033 
-0.255623 -13.6138 71.9625 255 255 255 0.964588 0.26329 -0.0157731 2033 
-0.0906426 -14.1793 72.1884 255 255 255 0.961124 0.26719 -0.0696466 2033 
-0.781853 -10.7409 71.6124 252 252 252 0.958705 0.0674786 -0.27628 1985 
-0.698693 -15.8554 73.1922 218 218 218 0.142123 0.172308 0.974736 1441 
-0.720543 -11.469 71.549 255 255 255 0.981734 0.130816 -0.138152 2033 
-0.0130626 -14.4193 72.3051 255 255 255 0.958931 0.258924 -0.1158 2033 
0.574481 -14.9332 75.4996 255 255 255 0.994485 0.104739 -0.00539894 2033 
0.558996 -14.7051 75.9185 252 252 252 0.998223 0.0574893 -0.0156789 1985 
-3.09961 -16.4156 73.6421 227 227 227 0.145976 0.155957 0.976918 1585 
0.602184 -16.78 72.5748 244 244 244 0.842743 0.0288705 -0.537541 1857 
-0.124253 -12.7298 72.5247 231 231 231 0.707051 0.0125512 -0.707051 1649 
0.330747 -15.5028 72.7492 255 255 255 0.960458 0.25913 -0.101847 2033 
0.144227 -13.0719 72.7362 219 219 219 0.530352 -0.0316834 -0.847185 1457 
-0.972463 -9.07281 70.8718 253 253 253 0.994288 0.0659876 0.0838826 2001 
0.741298 -16.0655 77.3763 253 253 253 0.973694 0.227785 0.00590117 2001 
0.799407 -4.40284 69.4014 233 233 233 0.934587 0.0784362 0.34698 1681 
-5.09741 -4.93642 71.774 168 168 168 -0.0255387 0.254171 0.966822 641 
-1.4782 2.158 69.394 205 205 205 0.961604 0.0384642 0.271731 1233 
-0.0608226 -14.1164 72.4028 255 255 255 0.937358 0.146419 -0.316102 2033 
-0.592973 -12.2118 71.4583 252 252 252 0.974084 0.218772 0.0574428 1985 
-0.195843 -12.0913 72.4588 226 226 226 0.680398 -0.00138012 -0.732842 1569 
-2.60554 -16.4959 73.5856 226 226 226 0.134176 0.203181 0.969904 1569 
-0.322483 -4.37575 69.4082 238 238 238 0.961407 0.0723913 0.265435 1761 
0.531172 -14.5585 74.4039 255 255 255 0.996069 0.0884211 -0.00532657 2033 
-0.109893 -12.9621 71.1119 228 228 228 0.352897 0.365225 0.861438 1601 
1.23149 -16.6087 72.329 252 252 252 0.778202 0.129452 0.614527 1985 
0.542933 -12.6769 72.8508 246 246 246 0.975828 0.00116866 -0.218539 1889 
-0.561923 -11.5607 72.006 247 247 247 0.885152 0.0619469 -0.46116 1905 
0.571579 -14.8546 76.1417 253 253 253 0.997391 0.0708645 -0.0137498 2001 
-4.15599 -2.38171 70.127 168 168 168 0.736478 0.186041 0.650376 641 
0.82592 -16.4035 76.4008 252 252 252 0.981019 0.193909 -0.00114739 1985 
0.50604 -14.2808 74.0121 255 255 255 0.997618 0.06833 -0.00946108 2033 
0.548 -14.7255 74.1538 255 255 255 0.993746 0.11162 0.00325108 2033 
-0.958503 -7.34404 70.2587 244 244 244 0.911935 0.0888692 0.400595 1857 
-0.164953 -13.874 71.8501 255 255 255 0.927932 0.326106 0.180548 2033 
0.715635 -15.9182 76.5366 252 252 252 0.976518 0.215046 0.0129262 1985 
0.50112 -13.7596 74.1108 251 251 251 0.996048 -0.069033 -0.0558839 1969 
-4.91135 0.253238 70.8539 240 240 240 -0.0416971 0.997522 0.0566652 1793 
0.606166 -12.8911 73.7905 252 252 252 0.999091 0.00717296 -0.0420131 1985 
0.776895 -16.2149 77.419 250 250 250 0.973694 0.227785 0.00590117 1953 
0.59104 -15.0171 76.7725 252 252 252 0.997391 0.0708645 -0.0137498 1985 
0.0151674 -11.5203 70.5923 190 190 190 0.178104 0.265117 0.947624 993 
-0.322763 -12.6256 72.283 244 244 244 0.850756 0.0719545 -0.520612 1857 
0.184467 -14.8157 72.7813 253 253 253 0.98484 0.123857 -0.121452 2001 
0.6872 -15.2123 70.9831 238 238 238 0.989006 0.140959 -0.0446944 1761 
0.500249 -13.6437 73.9423 251 251 251 0.993072 -0.0982904 -0.0643972 1969 
-0.682603 -11.5147 71.0186 255 255 255 0.944777 0.213159 0.248915 2033 
-0.980303 -7.36019 70.3216 247 247 247 0.939068 0.080567 0.334155 1905 
-0.0677125 -14.1489 72.3622 255 255 255 0.945907 0.181538 -0.268894 2033 
-7.81844 -4.13942 71.6026 125 125 125 0.00323866 0.106876 0.994267 -47 
-0.929853 -6.63819 71.426 233 233 233 0.880452 -0.00663991 -0.474089 1681 
-8.00528 -4.4429 71.6422 164 164 164 -0.00788031 0.158732 0.98729 577 
0.582539 -14.2768 76.1916 234 234 234 0.980361 -0.176149 -0.0886819 1697 
0.610215 -15.2228 75.3438 255 255 255 0.991741 0.128214 -0.00328754 2033 
-1.47935 -15.4767 73.2827 212 212 212 0.21874 -0.0598786 0.973944 1345 
-11.259 -5.27579 71.6624 150 150 150 -0.0561144 0.124826 0.990591 353 
-3.72372 -16.4613 73.796 255 255 255 0.450625 0.111597 0.885711 2033 
-3.84351 -3.63049 70.3328 42 42 42 0.581502 0.0971587 0.807722 -1375 
0.203767 -14.1582 71.5338 228 228 228 0.298666 0.408943 0.862302 1601 
0.246237 -13.3697 72.806 221 221 221 0.471188 -0.036663 -0.881271 1489 
-0.0516726 -13.6704 72.5481 247 247 247 0.820769 0.0787824 -0.565801 1905 
-0.850333 -7.00696 71.5647 228 228 228 0.842893 -0.0149787 -0.537872 1601 
0.506511 -10.5212 72.9252 251 251 251 0.997472 0.017982 -0.0687547 1969 
0.0796274 -10.7224 69.8131 215 215 215 0.76225 0.552752 -0.336808 1393 
-0.426083 -2.95031 69.3699 186 186 186 0.807456 0.10951 0.579674 929 
0.551451 -14.6512 75.6761 251 251 251 0.998261 0.0573713 -0.0135605 1969 
-4.1186 -5.14625 71.313 58 58 58 0.988197 0.146442 0.0449704 -1119 
-0.755283 -11.3269 71.2563 255 255 255 0.985274 0.164797 0.0455821 2033 
-0.473093 -10.7004 72.1643 231 231 231 0.748805 -0.0125032 -0.662672 1649 
0.482356 -16.0817 72.3967 247 247 247 0.926927 0.0818272 -0.36621 1905 
-3.30841 -16.2535 73.6544 228 228 228 0.183998 0.0486706 0.981721 1601 
-0.665993 -6.95429 71.7932 218 218 218 0.715034 -0.0382296 -0.698043 1441 
-1.02358 -7.63282 71.1288 239 239 239 0.881952 0.419483 -0.214929 1777 
-2.70965 -15.8913 73.5324 217 217 217 0.219229 -0.062462 0.973672 1425 
-0.995143 -16.199 73.3016 221 221 221 0.131597 0.2057 0.969727 1489 
-0.576293 -8.89094 71.9931 224 224 224 0.727608 -0.0324951 -0.685223 1537 
0.511052 -11.0526 72.7946 252 252 252 0.995772 0.020498 -0.089544 1985 
0.560573 -14.3706 76.04 237 237 237 0.995151 -0.0806282 -0.0563293 1745 
-0.853483 -8.73747 71.5849 245 245 245 0.909655 0.00129396 -0.415362 1873 
0.622892 -14.5772 77.1807 227 227 227 0.977227 -0.188545 -0.097353 1585 
0.484959 -14.1366 73.1074 255 255 255 0.992612 0.0483378 -0.111289 2033 
-0.626943 -12.0469 71.4174 255 255 255 0.976335 0.209301 0.0544424 2033 
0.00530744 -14.4964 72.155 252 252 252 0.947358 0.311442 0.074277 1985 
-4.86593 -4.37028 71.6621 165 165 165 -0.0175878 0.202846 0.979053 593 
-1.99808 -3.8698 68.594 205 205 205 0.887294 0.380269 0.260969 1233 
0.339647 -15.5452 72.4217 255 255 255 0.92703 0.340513 0.157053 2033 
-1.20041 -4.46728 70.3272 237 237 237 0.991232 0.0604549 0.117488 1745 
-0.145043 -10.2227 70.2952 187 187 187 0.215723 0.22115 0.951082 945 
-1.12137 -2.29654 69.5719 199 199 199 0.711181 0.0953129 0.696518 1137 
-2.51881 -16.1682 73.515 227 227 227 0.152248 0.134919 0.97909 1585 
0.604958 -14.6502 77.171 230 230 230 0.988 -0.134462 -0.076 1633 
-0.242813 -13.2378 72.3139 117 117 117 0.892762 0.11424 -0.435803 -175 
-0.931973 -9.37297 70.7477 250 250 250 0.976842 0.08724 0.195368 1953 
-0.539343 -10.5992 72.0845 238 238 238 0.784735 -0.00412295 -0.619817 1761 
-0.932693 -9.55856 70.8389 245 245 245 0.984634 0.0971442 0.145117 1873 
-0.000852585 -10.5186 72.4951 210 210 210 0.426932 -0.069564 -0.901604 1313 
-0.0768726 -14.0779 71.8097 255 255 255 0.885873 0.359463 0.293285 2033 
-0.0499526 -13.3784 71.2685 240 240 240 0.436835 0.395231 0.808064 1793 
-0.393423 -12.8084 71.3144 255 255 255 0.895676 0.314455 0.314455 2033 
4.32615 -4.32572 68.8608 144 144 144 -0.809731 -0.574601 -0.119035 257 
-7.99934 -5.49511 71.8553 201 201 201 -0.0245323 0.0693305 0.997292 1169 
0.563708 -14.8452 75.2395 255 255 255 0.994956 0.100033 -0.00752939 2033 
-1.41786 -16.705 73.4676 219 219 219 0.135613 0.191379 0.972103 1457 
-1.93989 -15.9766 73.3981 225 225 225 0.151294 0.126693 0.980336 1553 
-3.54409 -16.865 73.7949 230 230 230 0.213149 0.202425 0.95582 1633 
-9.7683 -4.91636 71.6768 170 170 170 -0.0531819 0.243647 0.968405 673 
0.593865 -14.7522 77.1671 234 234 234 0.993156 -0.108365 -0.0435693 1697 
-11.6818 -5.37503 71.6559 146 146 146 -0.046261 0.0570193 0.997301 289 
-4.07957 -4.79421 70.6862 44 44 44 0.838241 0.177809 0.515496 -1343 
0.612541 -14.4784 76.8906 228 228 228 0.977569 -0.188136 -0.0946827 1601 
-2.16641 -15.6591 73.4257 219 219 219 0.232113 -0.0976652 0.967773 1457 
0.590198 -15.0685 75.68 252 252 252 0.992948 0.118545 -0.00108757 1985 
0.66146 -15.2052 71.908 219 219 219 0.282519 0.449252 0.847558 1457 
-0.910173 -0.200462 69.1762 162 162 162 0.403775 0.121552 0.906747 545 
0.509167 -14.1535 74.5153 252 252 252 0.99943 0.0194362 -0.0276199 1985 
-3.29162 -17.2432 73.8402 221 221 221 0.136486 0.197714 0.970711 1489 
-3.57274 -4.59235 68.6998 220 220 220 0.980276 0.101324 0.169687 1473 
0.542696 -11.8377 72.9938 254 254 254 0.998439 0.0220013 -0.0513363 2017 
1.21813 -16.5496 72.3329 249 249 249 0.77678 0.129216 0.616374 1937 
-4.24563 -3.78288 70.8153 168 168 168 0.978436 0.18736 0.0869449 641 
0.538352 -13.9426 75.0121 236 236 236 0.987629 -0.137073 -0.0761517 1729 
0.550977 -11.5405 73.3162 254 254 254 0.998373 0.0199046 -0.0534282 2017 
-1.04281 -7.38961 71.0683 246 246 246 0.984533 0.028991 -0.172786 1889 
3.84615 -4.22973 69.2224 132 132 132 0.827118 0.318605 -0.462998 65 
0.591397 -14.8644 77.1699 244 244 244 0.995022 -0.0969955 0.0228866 1857 
0.536104 -14.419 75.3391 252 252 252 0.999388 0.0276187 -0.0214812 1985 
-1.06653 -16.9539 73.4711 219 219 219 0.137024 0.203616 0.969415 1457 
-0.516063 -16.9035 73.3847 212 212 212 0.14241 0.175177 0.974183 1345 
-0.396713 -15.2748 73.0666 209 209 209 0.176625 0.055714 0.9827 1297 
0.240577 -15.2696 72.4838 255 255 255 0.954632 0.297786 0.00122546 2033 
0.506543 -13.6591 74.0613 251 251 251 0.991379 -0.110916 -0.069751 1969 
0.555214 -12.7871 72.8718 253 253 253 0.974342 -0.0548753 -0.218282 2001 
-0.528143 -12.1248 71.9709 253 253 253 0.929721 0.104205 -0.353213 2001 
-1.02278 -7.50884 71.153 244 244 244 0.969748 0.0943335 -0.225143 1857 
-2.44744 -16.6226 73.5909 229 229 229 0.129695 0.219583 0.966935 1617 
-0.528473 -12.1282 71.0582 255 255 255 0.882872 0.287272 0.371498 2033 
-13.0805 -5.07461 71.5437 158 158 158 -0.0503812 0.16286 0.985362 481 
-0.492163 -6.50715 71.9337 203 203 203 0.556845 0.072632 -0.827435 1201 
0.563252 -12.1645 73.2774 255 255 255 0.99855 0.0219577 -0.0491433 2033 
0.586877 -12.2215 73.7348 251 251 251 0.998322 0.022045 -0.0535378 1969 
-6.79244 -4.6307 71.6893 164 164 164 -0.0127407 0.193427 0.981032 577 
-6.37504 -5.07037 71.7818 168 168 168 -0.0108394 0.254123 0.967111 641 
0.101647 -14.6924 71.7569 250 250 250 0.972496 0.148735 -0.179244 1953 
1.37257 -0.898482 70.6912 119 119 119 0.940073 -0.166057 0.297804 -143 
0.602085 -15.1658 76.1136 255 255 255 0.99269 0.120688 0.00108728 2033 
-0.123983 -10.6981 72.4477 196 196 196 0.505039 -0.057043 -0.86121 1089 
-4.48494 -4.78256 71.7512 159 159 159 -0.0615356 0.196673 0.978536 497 
0.513601 -13.1894 73.2744 248 248 248 0.971194 -0.212882 -0.107071 1921 
0.594442 -15.0682 76.761 250 250 250 0.996595 0.0818973 -0.00957241 1953 
-0.820623 -10.5327 71.5127 250 250 250 0.972881 0.0500478 -0.225826 1953 
0.481402 -13.8771 73.6291 255 255 255 0.999447 0.0152821 -0.0295453 2033 
0.53467 -13.5403 74.1781 247 247 247 0.961724 -0.226983 -0.153509 1905 
-0.224173 -11.7613 72.429 222 222 222 0.661109 -0.0125263 -0.750185 1505 
-0.336273 -12.349 72.2919 243 243 243 0.819998 0.0462563 -0.570494 1841 
-0.102413 -12.0461 72.5333 213 213 213 0.598277 -0.0235979 -0.800942 1361 
-2.44007 -16.8199 73.6345 226 226 226 0.135881 0.194297 0.971486 1569 
-0.717393 -11.4974 71.545 255 255 255 0.982155 0.132987 -0.132987 2033 
-0.685263 -7.95162 71.8216 223 223 223 0.766006 -0.0352673 -0.641865 1521 
-1.05827 -3.70997 71.2361 233 233 233 0.996311 0.0379444 -0.0769729 1681 
7.39098e-06 -13.1713 71.1599 224 224 224 0.300503 0.366946 0.880368 1537 
-0.429533 -12.8507 71.9333 255 255 255 0.966901 0.177806 -0.182997 2033 
0.113167 -13.5778 72.7254 228 228 228 0.65732 -0.0295583 -0.753032 1601 
-0.554473 -12.2899 71.3064 254 254 254 0.94698 0.257524 0.192121 2017 
-1.79109 -15.7854 73.3528 223 223 223 0.171509 0.07556 0.982281 1521 
0.568371 -14.8978 74.9779 255 255 255 0.993475 0.114005 -0.00325729 2033 
-0.459273 -7.3089 71.9915 198 198 198 0.590217 -0.0552001 -0.805355 1121 
0.523763 -14.5001 73.9162 255 255 255 0.995021 0.0996093 -0.0032132 2033 
0.47436 -13.4429 73.2551 253 253 253 0.995404 -0.07402 -0.0607627 2001 
-0.754683 -10.4758 71.7262 249 249 249 0.923808 0.0220263 -0.382221 1937 
0.414252 -15.9138 72.2819 248 248 248 0.904268 0.0442086 -0.424671 1921 
-2.35526 -16.8038 73.6187 229 229 229 0.135881 0.194297 0.971486 1617 
-5.45715 -5.26953 71.8367 167 167 167 -0.0125079 0.167151 0.985852 625 
0.177777 -14.7775 71.9526 255 255 255 0.958692 0.280194 0.0490026 2033 
-3.78055 -6.70082 71.3566 69 69 69 0.946858 0.321456 -0.0112572 -943 
0.596786 -13.0119 73.6449 255 255 255 0.99268 -0.0898301 -0.0807334 2033 
-0.627323 -12.0386 71.5742 255 255 255 0.981287 0.180921 -0.0658984 2033 
-3.93859 -6.13676 71.2539 75 75 75 0.975568 0.217984 0.0273969 -847 
-0.487353 -9.0831 72.0887 216 216 216 0.674572 -0.0411844 -0.737059 1409 
-5.53136 0.241888 70.577 239 239 239 0.0151185 0.980379 -0.196541 1777 
-0.755043 -6.347 71.7009 244 244 244 0.827282 0.143553 -0.543135 1857 
0.817153 -16.3699 76.61 252 252 252 0.979109 0.203255 0.00580729 1985 
0.621696 -15.3102 75.9562 255 255 255 0.990769 0.135556 0.00110208 2033 
0.586805 -12.5426 73.5833 253 253 253 0.998267 0.0284017 -0.0515438 2001 
-0.780823 -9.81621 70.4528 249 249 249 0.779252 0.151646 0.608087 1937 
0.521342 -10.5911 73.0755 249 249 249 0.996884 0.0138308 -0.0776654 1937 
-4.11486 -5.17292 71.3448 51 51 51 0.987804 0.149037 0.0450577 -1231 
0.78668 -17.0114 73.118 255 255 255 0.944457 0.304102 0.124588 2033 
0.578981 -14.9873 75.0885 255 255 255 0.992979 0.118289 -0.00108522 2033 
-0.339223 -13.2427 71.6493 255 255 255 0.941542 0.296538 0.159885 2033 
0.523283 -14.4576 74.4646 255 255 255 0.99711 0.075074 -0.0116312 2033 
-0.890843 -7.82306 71.3092 177 177 177 0.994785 -0.00321937 0.101947 785 
0.617314 -15.2779 77.21 255 255 255 0.970349 0.204753 0.128447 2033 
0.562242 -12.07 73.3174 252 252 252 0.998439 0.0220013 -0.0513363 1985 
-2.59929 -16.9346 73.6795 228 228 228 0.133321 0.196807 0.971336 1601 
-0.358323 -13.1401 71.5792 255 255 255 0.935926 0.296214 0.190523 2033 
0.676706 -15.689 76.8092 251 251 251 0.993197 0.116399 0.00326352 1969 
-0.971623 -7.31359 71.3262 241 241 241 0.93435 0.00887443 -0.356245 1809 
-1.86039 -17.1557 73.6231 213 213 213 0.134176 0.203181 0.969904 1361 
0.0304574 -10.7583 69.2395 228 228 228 0.987913 0.104797 -0.114216 1601 
0.519934 -14.4006 74.523 254 254 254 0.997847 0.0641398 -0.0136691 2017 
-4.09086 -2.87259 70.8433 215 215 215 0.239752 -0.536736 0.808971 1393 
-1.36682 -0.602242 69.737 219 219 219 0.971461 0.0705392 0.226468 1457 
-4.22271 -2.36163 70.1796 195 195 195 0.865873 0.140686 0.480074 1073 
0.587036 -15.0454 75.1103 255 255 255 0.992658 0.12095 -0.00108964 2033 
0.508298 -14.3866 73.1757 255 255 255 0.994023 0.0638775 -0.0885319 2033 
-3.72075 -6.72172 71.6394 245 245 245 0.790494 0.396055 -0.467183 1873 
0.588041 -15.0525 75.0107 255 255 255 0.992394 0.123096 0.00108935 2033 
0.579332 -14.2068 76.0076 232 232 232 0.978996 -0.18211 -0.0916663 1665 
-10.9258 -4.88932 71.6228 32 32 32 -0.0463686 0.189041 0.980874 -1535 
-0.610053 -16.9191 73.3995 217 217 217 0.141066 0.186818 0.972214 1425 
-0.758253 -9.22057 71.7684 236 236 236 0.858186 -0.00673615 -0.513295 1729 
